# .PCD v0.7 - Point Cloud Data file format
VERSION 0.7
FIELDS x y z intensity
SIZE 4 4 4 4
TYPE F F F F
COUNT 1 1 1 1
WIDTH 1308
HEIGHT 1
VIEWPOINT 0 0 0 1 0 0 0
POINTS 1308
DATA ascii
25.240728 81.914162 3.0877838 12.08875
25.372665 82.193031 3.1176982 12.05175
25.460344 82.632721 3.0849652 12.0629
25.396238 83.027473 3.1049893 12.0061
25.275921 83.375778 3.1416216 12.00875
25.587795 83.783478 3.0123463 12.0085
25.305136 -14.832058 3.2277632 15
25.393711 -14.214418 3.3957646 16.742285
25.290407 -13.981069 3.5787387 16
25.587437 83.163467 3.2076831 12.144
25.442879 -14.700067 3.9501851 16
25.405714 -14.217589 3.7809386 17.467163
25.38555 -13.847059 3.8764396 16.694368
25.435865 80.916916 3.6956542 14.042375
25.463348 81.989685 3.8619096 14.0435
25.576294 -14.463146 4.0463705 16
25.384548 -14.18716 4.1098318 17.445999
25.413422 -13.827524 4.1845603 18.53545
25.470583 81.390137 4.3063002 13.097
25.350506 81.643784 4.341094 13.0875
25.38645 82.627495 4.276957 13.007584
25.409437 82.881897 4.3186135 13
25.285969 83.221642 4.2545185 13.042
25.434984 -13.810734 4.6286983 19.003172
25.297668 -13.495728 4.562429 19.018499
25.497452 82.369072 4.4384165 13
25.375656 82.665848 4.6794019 13.038876
25.426674 82.972801 4.6868382 13.000643
25.38866 83.360977 4.6521864 13.034875
25.575596 -14.417253 5.0993428 17
25.316336 -14.223788 4.9587722 17.068001
25.420235 -13.805453 4.9823132 19.229776
25.330475 82.240913 4.9818902 13.015249
25.311562 82.736237 4.9107337 13.0075
25.439175 83.018166 4.8976202 13.003
25.47595 83.636589 4.9404182 13
25.42535 -14.213491 5.2382102 17.1735
25.416433 -13.803985 5.3940387 20.976448
25.390331 -13.534349 5.365356 20.043751
25.394627 -13.730887 5.8073621 20.465456
25.354004 -13.543764 5.8382878 20.4841
25.377897 -13.675627 6.1451659 19.694666
25.414328 -13.5744 6.090939 21.3965
25.361521 82.188217 6.1606607 14.05175
25.451956 82.643761 6.1581283 14.347751
25.435904 83.021057 6.1762199 14.007584
25.3543 83.382431 6.2255816 14.362888
25.258118 83.691406 6.3543091 14
25.361534 84.137222 6.2710457 14
25.337839 83.473862 6.4179664 14.0105
25.262684 82.227112 7.9336405 15
25.296997 83.33297 7.9994497 15
25.278687 82.790947 8.1370363 15
25.425955 82.915878 8.025444 15
25.553864 83.665344 8.1346188 15
25.352907 84.217438 8.2227545 15.05175
25.322578 60.079853 13.102679 22.1425
25.483294 59.867168 14.400908 22.0835
25.821957 -13.296082 -2.0215254 7
25.894606 -12.806517 -2.0160575 7
25.645082 -12.404202 -2.0481639 5
25.749586 -10.849926 -2.0390213 3.5
25.790874 -10.626002 -2.1504667 6
25.792179 -10.009395 -2.1212823 6
25.759615 -9.3416605 -2.0266094 3
25.790792 -8.8991528 -2.0862746 4
25.990063 -8.682395 -2.1077085 6
25.794357 -8.2038116 -2.0672548 4
25.748209 -6.6227298 -2.0534093 2.3333333
25.895666 -5.7370048 -2.0385058 5
25.781702 -4.648972 -2.0532198 5
25.898863 -3.8986917 -2.013865 5
25.899652 -0.95760643 -2.0267134 1
25.627762 -0.43668371 -2.0168025 3
25.808334 0.5831129 -2.0395248 1
25.694757 1.3265947 -2.0003884 0.5
25.851999 2.3864925 -2.005532 1
25.89436 2.8607316 -2.0024459 0
25.607292 4.6696897 -2.0556321 3
25.799776 5.0071106 -2.0528908 3
25.945328 5.2542925 -2.0510249 3
25.709028 5.9170184 -2.1104858 3
25.8561 6.170136 -2.1089027 3
25.608444 9.3091898 -2.0061116 3
25.821609 9.7790308 -2.0070405 3
25.633724 11.117674 -2.1231804 5
25.83185 11.411654 -2.1268027 5
25.60907 11.90454 -2.006182 3
25.722593 12.099073 -2.0024712 3
25.73506 12.488131 -2.1015217 4
25.844936 12.869858 -2.0228412 3
25.632248 13.272228 -2.0500808 3
25.900063 13.663996 -2.0388422 3
25.836647 14.122519 -2.016834 3
25.751644 16.926359 -2.032336 5.5
25.82946 17.221441 -2.1709754 6
25.791729 18.504986 -2.2375677 6
25.971537 20.798107 -2.0309985 6
25.8701 24.751827 -2.0024703 8
25.965435 26.126688 -2.0688949 0
25.927279 29.282072 -2.1466045 1
25.897373 31.871397 -2.0022478 5
25.71669 35.018436 -2.2024739 5
25.987545 35.325012 -2.2067657 5
25.626362 37.549477 -2.0061378 5
25.756926 37.856987 -2.0546901 5.25
25.889244 38.214291 -2.1425371 5.25
25.808573 38.763256 -2.2359028 5
25.691277 40.604195 -2.0682404 7
25.806047 41.402279 -2.1665184 6.5
25.997252 41.851906 -2.2431321 6
25.967096 42.393612 -2.004756 6
25.87636 42.737602 -2.0234394 6
25.710846 43.048672 -2.0111489 6
25.806509 43.366665 -2.1076462 6
25.800894 43.690285 -2.0954506 6
25.792658 44.083553 -2.2859435 6
25.730476 49.273033 -2.0767987 7
25.893364 52.306282 -2.1347651 7
25.767784 52.402657 -2.1578538 8
25.774931 54.717785 -2.1303442 8
25.949726 56.736168 -2.1452746 9
25.76709 -14.150993 -1.7544819 6.647059
25.887339 -13.788454 -1.7625016 4.8000002
25.774965 -13.390663 -1.7093008 4.4285712
25.778526 -12.976201 -1.7195084 5.0625
25.818413 -12.664543 -1.7487302 4
25.795458 -12.24235 -1.7335424 4.8235292
25.774252 -11.752012 -1.7732803 4.8461537
25.767254 -11.428127 -1.8249389 5.6666665
25.786356 -11.002687 -1.7829533 5.2222223
25.823233 -10.603315 -1.810703 4.818182
25.820421 -10.2197 -1.8064116 5.1666665
25.813278 -9.7874269 -1.8252436 4.5
25.81628 -9.3951054 -1.7745137 4.647059
25.805109 -9.0103273 -1.8004695 4.2142859
25.816744 -8.6280346 -1.7894845 4.3333335
25.763268 -8.2213774 -1.8162829 3.5454545
25.811085 -7.8417926 -1.8434974 4.0476189
25.810516 -7.4013577 -1.8319134 3.3888888
25.758757 -7.0321732 -1.8422844 3.2727273
25.791882 -6.6422138 -1.8488963 4.9166665
25.786156 -6.2038589 -1.8303685 3.4705882
25.775839 -5.8193998 -1.8299283 3.2941177
25.797314 -5.3455353 -1.8251398 3.8095238
25.786064 -4.9657183 -1.8247428 2.9523809
25.797537 -4.6327724 -1.8388923 2.1578948
25.78503 -4.1747923 -1.8350137 2.8
25.778927 -3.781471 -1.8513585 2.25
25.803823 -3.4061477 -1.82758 2.4347825
25.781088 -3.0173643 -1.8678862 3.4000001
25.802921 -2.5972114 -1.8321983 3
25.804039 -2.1698916 -1.8422619 2.8333333
25.818512 -1.7967206 -1.820344 3.8888888
25.803738 -1.3828944 -1.8175851 3.6842105
25.785883 -1.0146502 -1.8052096 4.5238094
25.774027 -0.59991688 -1.8146057 4.7222223
25.81439 -0.19394708 -1.8223984 3.8064516
25.807421 0.20926017 -1.820142 3.909091
25.807545 0.59052175 -1.8040032 3.8823528
25.809858 0.98864412 -1.7745249 4.75
25.778189 1.4150795 -1.8341343 3.9230769
25.790373 1.7499913 -1.8251454 4
25.812098 2.2051284 -1.783004 4.5925927
25.766209 2.5623057 -1.8196483 4.0476189
25.809605 3.0520744 -1.8703066 3.2777777
25.797771 3.4009459 -1.9058412 2.3
25.838434 3.7501657 -1.8605078 2.6428571
25.79038 4.1965075 -1.7981058 4.2272725
25.826736 4.5758743 -1.841531 3.1333334
25.841824 4.9742565 -1.8597221 3.909091
25.803713 5.4070711 -1.8690835 2.8125
25.829174 5.7952781 -1.8130457 4.4666667
25.805017 6.2374988 -1.896153 3.5999999
25.809824 6.6073575 -1.7931991 4.7857141
25.802408 7.0300527 -1.8122866 4.5
25.758989 7.4401922 -1.8150562 3
25.790892 7.8094654 -1.8222497 4.181818
25.770964 8.194418 -1.8609241 4
25.843782 8.6247902 -1.9126682 3
25.869682 9.0210257 -1.8749769 2.1666667
25.873068 9.4808178 -1.8877733 0.66666669
25.771765 9.8252726 -1.7893487 5.1999998
25.841747 10.177937 -1.79673 5.7142859
25.88056 10.603573 -1.8208109 3.7
25.870392 11.039816 -1.7923914 4.3333335
25.742067 11.384053 -1.8155811 3.4000001
25.810028 11.813608 -1.8181869 3.9166667
25.863859 12.195812 -1.8049479 3.3
25.821833 12.538198 -1.7900317 4.25
25.759796 12.973643 -1.8076426 2.75
25.795118 13.413435 -1.7776653 3.5
25.738686 13.779408 -1.8768321 3.25
25.857643 14.170589 -1.8683342 2.0999999
25.80159 14.606801 -1.8472254 2.5555556
25.962433 15.014818 -1.8586466 2.5999999
25.839859 15.434773 -1.8851442 4
25.799166 15.835254 -1.8696474 3
25.812889 16.204462 -1.8811479 3.2857144
25.808393 16.621813 -1.8585074 4.3333335
25.833744 16.973356 -1.9214119 2.8571429
25.843576 17.41535 -1.7914321 3.5882354
25.840845 17.863462 -1.80127 3.75
25.769339 18.164999 -1.7546136 4.5
25.773647 18.609715 -1.7551157 3.8333333
25.809795 19.075922 -1.863879 4.1666665
25.812233 19.368776 -1.7097884 5.4523811
25.781441 20.168289 -1.7657861 5.5555553
25.955347 20.404154 -1.9395351 6
25.631977 27.146173 -1.8008863 5
25.884056 27.794413 -1.8226444 5
25.691292 31.560118 -1.9960907 5
25.631756 34.262028 -1.9137293 6
25.96192 34.498409 -1.8994462 6
25.771111 35.842205 -1.9550121 6
25.941271 36.502399 -1.9732331 5
25.717157 37.220985 -1.9965662 5
25.979391 38.416477 -1.6824306 7
25.702267 40.854954 -1.9113588 6
25.806835 42.200863 -1.8967948 6.5
25.979858 42.533405 -1.9571178 6
25.62504 45.600178 -1.9328526 7
25.947393 47.979832 -1.7067778 8
25.683142 48.077488 -1.6055527 8
25.676279 48.597916 -1.8130001 7
25.753513 50.422867 -1.92962 7
25.81922 55.903896 -1.8304938 8
25.747766 56.65337 -1.6879244 8
25.832327 56.831623 -1.723071 8.75
25.799747 -14.205181 -1.3965555 7.0512819
25.7929 -13.80752 -1.5634602 6.5
25.772377 -13.421769 -1.5180019 7.3333335
25.648243 -13.080299 -1.4721543 8.5
25.824862 -12.228265 -1.4151819 9
25.712746 -11.920621 -1.3598961 9
25.831186 -10.254503 -1.4967376 8
25.915504 -6.9512887 -1.5685347 8
25.773989 -6.6150055 -1.527068 8
25.877562 -5.8202043 -1.3908994 8
25.778645 -5.466568 -1.4149033 8
25.762558 -5.0926433 -1.4766912 7.8000002
25.92557 -1.3888612 -1.5953977 6
25.833277 -0.97080451 -1.4033686 7
25.740938 -0.64772701 -1.5020802 7
25.900396 -0.044879366 -1.5131788 7
25.85165 0.20080024 -1.4959829 7
25.716303 0.43699104 -1.4896984 7
25.793468 2.2682617 -1.4802607 6
25.986038 2.6894403 -1.539849 5.5
25.840372 3.0069616 -1.4850867 6
25.830397 3.4123418 -1.5154707 6
25.821398 3.8401337 -1.54849 6
25.855188 4.2747149 -1.5411475 6
25.745422 4.6222959 -1.5321367 6
25.929129 5.4027276 -1.5573782 5
25.701735 5.7946467 -1.5693431 5
25.871517 7.019815 -1.5707407 5
25.750235 7.3899808 -1.4933779 5.6666665
25.87229 7.8244138 -1.5495656 5
25.790876 8.1651344 -1.5271502 5
25.660011 8.4788933 -1.5389204 5
25.842451 11.103079 -1.4690543 7.5
25.791981 13.675226 -1.5835354 0
25.753212 14.091269 -1.500855 9
25.948193 15.045984 -1.5549642 5
25.919704 15.470181 -1.5279568 0.66666669
25.83362 16.318035 -1.4644295 2.6666667
25.820431 16.801189 -1.5629808 1
25.798563 17.349237 -1.498719 1
25.90152 18.125547 -1.4235764 2.3333333
25.704109 19.167505 -1.2405726 5
25.777615 19.364164 -1.3763337 5.191781
25.815369 19.782694 -1.4590573 5
25.797895 20.158905 -1.3922375 6.4285712
25.860456 56.637165 -1.2543987 10
25.799725 56.857361 -1.4819858 8.7142859
25.786493 -14.827432 -1.1546839 9
25.79637 -14.194992 -0.99996251 8.0347824
25.730907 -13.990079 -0.93758011 7
25.728931 -10.533972 -1.1600238 9
25.659454 7.787035 -1.0142957 6
25.742895 19.188776 -0.91351527 5.8000002
25.765759 19.36548 -1.0007914 6.7058825
25.759245 19.861893 -0.98021513 7.2857141
25.785805 20.15107 -0.98260611 7.4444447
25.904669 24.666964 -0.99515486 7
25.752178 56.694618 -0.98080641 9
25.881342 56.811165 -1.1753924 9
25.821297 -14.737936 -0.49263871 10
25.785225 -14.201203 -0.60681313 8.7702703
25.648504 7.8284445 -0.59945112 7.5
25.871529 19.179327 -0.71866298 6.5
25.759125 19.356033 -0.57749671 7.0761905
25.86883 19.757362 -0.50567883 7.4487219
25.865219 20.109926 -0.53913587 9.0135555
25.829346 20.662308 -0.53815556 7.4000001
25.980064 56.781151 -0.73583657 9
25.790493 56.865479 -0.61495608 9.4117651
25.801838 -14.194917 -0.19628306 9.1054688
25.812206 19.167259 -0.19314609 8.333333
25.773195 19.368801 -0.21813527 7.9481254
25.801649 19.772055 -0.16741192 8
25.879408 20.085062 -0.22645321 8
25.781496 20.646606 -0.15944023 7.1320987
25.826813 20.852888 -0.20389868 6.5500002
25.997387 56.769608 -0.051857002 10
25.808422 56.89336 -0.24813698 10.153846
25.758718 86.623703 -0.35032409 10
25.898693 -14.820782 0.29543579 11
25.704567 -14.744081 0.16753744 11
25.799776 -14.183131 0.21821186 9.6630783
25.692156 19.177397 0.18513426 9.75
25.757566 19.381987 0.20012678 8.7845383
25.800583 19.753479 0.28369844 8.2976198
25.814184 20.213713 0.30048168 8.65905
25.778913 20.638336 0.19081791 8.3334198
25.807558 20.840124 0.15370223 7.3472219
25.741827 56.690823 0.055476394 10
25.771517 56.895138 0.16847494 10.411765
25.79233 -14.197342 0.62566066 11.07794
25.725412 19.179804 0.48726076 11
25.766653 19.399195 0.54914659 10.278647
25.779743 19.792933 0.51039976 9.7474089
25.775932 20.206167 0.48846579 10.248295
25.737934 20.668573 0.50329107 10.246565
25.767504 20.810598 0.56430864 11.04725
25.781153 56.961517 0.79470718 11
25.988224 84.646667 0.62421721 11.027
25.791437 85.272018 0.73145926 11.129
25.805151 85.690063 0.60509664 11.0205
25.825619 -14.720084 0.93581867 12
25.793509 -14.19523 1.0013199 12.46985
25.768812 19.418158 0.88130432 12.009
25.73262 20.20023 0.80253786 12.03
25.654093 20.621311 0.81125367 12
25.634108 81.383232 1.0220027 11.01125
25.802752 -14.200792 1.3781949 13.959905
25.81917 56.934162 1.3215555 12
25.847616 76.358032 1.2906867 11.11
25.634291 81.869041 1.2346286 11.001
25.837109 82.161255 1.4076641 11
25.882145 83.419136 1.4990903 11.06125
25.776472 83.636787 1.5597838 11
25.957146 86.484802 1.4387786 11.1125
25.725256 -14.831978 1.7429304 13
25.920263 -14.612853 1.7164717 13
25.803053 -14.19758 1.7836691 14.338258
25.755974 -13.995992 1.9708616 14
25.749735 81.202797 1.6197152 11.144
25.830814 83.02359 1.6024219 11
25.835047 83.676819 1.9921619 12
25.841288 -14.696562 2.3477371 14
25.797483 -14.210112 2.2320399 14.810828
25.931664 83.266205 2.0676594 12
25.713652 84.823799 2.0376711 12.0455
25.872099 -14.741739 2.4613917 14
25.801548 -14.210463 2.5798116 15.758028
25.721386 81.188652 2.5258083 12.129
25.665524 81.359406 2.4906185 12.0305
25.814915 82.659897 2.5705204 12
25.811995 86.106201 2.672755 12.08525
25.806511 -14.752717 3.1624143 15
25.785824 -14.209433 2.987458 15.711382
25.856537 81.948219 3.0059681 12.0585
25.800623 82.374023 3.0495861 12.004499
25.657734 82.559761 3.1252244 12.000167
25.870667 83.019676 3.1161339 12.030624
25.690189 83.706184 3.1351683 12.005168
25.649307 -14.837368 3.2575729 15
25.937487 -14.635907 3.271687 15
25.813995 -14.224617 3.413645 16.471188
25.780893 -13.999574 3.4523017 16
25.808046 83.741585 3.2571056 12.1585
25.801966 -14.212289 3.7681608 17.066568
25.734222 -13.85455 3.8634512 16.431021
25.830416 -14.169856 4.1018381 18.169395
25.810614 -13.837255 4.2115231 18.50985
25.719297 80.913696 4.286881 13.08
25.920277 81.732254 4.314682 13.0795
25.688301 82.721313 4.2412367 13
25.9478 86.396805 4.0424161 13.044
25.811995 -13.794848 4.6423182 18.807442
25.948654 -13.463043 4.6729846 19.018999
25.774042 82.390594 4.4158444 13
25.813467 82.533852 4.5244551 13.013056
25.778854 82.970566 4.6528807 13.015111
25.843519 83.309441 4.6098638 13.060375
25.700348 83.74691 4.7002974 13
25.809929 -14.422192 5.1323571 17
25.794216 -14.319294 5.0986991 17.011749
25.81572 -13.801196 5.0099401 19.20857
25.610245 -13.511927 4.8689847 19.011
25.939419 82.566383 4.8610883 13.02375
25.77957 83.00235 4.9717174 13.00325
25.734381 83.443535 4.899807 13.053666
25.947702 83.692009 4.8595958 13.07425
25.949057 84.171906 4.9991403 13.000999
25.800171 -13.809958 5.394032 21.152987
25.995565 -13.481498 5.5142145 21.018999
25.777191 -13.731977 5.805881 20.258301
25.836077 -13.490674 5.8728299 19.1635
25.764812 -13.701484 6.0910139 19.595285
25.712908 -13.547274 6.0786657 21.563499
25.844843 82.592522 6.1283646 14.029428
25.718739 83.081963 6.1222706 14.026668
25.844175 83.463722 6.2459154 14.042999
25.805983 83.751961 6.2811213 14
25.8678 84.118149 6.2917161 14.1175
25.942738 84.106033 6.4231911 14.1485
25.940977 84.417831 6.8261452 14.002
25.81472 83.392365 7.985085 15.11
25.713964 83.071152 8.0348911 15.04
25.786417 83.352921 8.1054363 15
25.856373 83.686661 8.1429214 15.0795
25.707348 84.324234 8.0999241 15.05625
25.654768 60.165104 13.253156 22.1175
25.95668 59.967403 14.151275 22.087
26.092188 47.605106 -2.596513 7
26.183203 56.83984 -2.4095514 8
26.363405 -12.744369 -2.0031936 7
26.187614 -10.830701 -2.0501335 3
26.15897 -10.757957 -2.0098102 5
26.348747 -10.332009 -2.10812 6
26.168215 -9.7591228 -2.0861673 6
26.248962 -9.2804041 -2.0067875 3
26.288393 -8.8537169 -2.0453691 3
26.356541 -8.454608 -2.0753949 6
26.295294 -8.1909323 -2.0356956 3
26.07943 -7.8960671 -2.0676918 6
26.178892 -6.6121526 -2.01512 1
26.204409 -6.2982683 -2.0551317 5
26.195801 -5.5607929 -2.0103266 5
26.083273 -4.4926419 -2.027178 5
26.380436 -4.3386889 -2.0022738 5
26.327177 -2.6355076 -2.0233076 3
26.184465 -0.84923154 -2.0037587 1
26.129908 0.71318936 -2.0118723 1
26.102093 5.5378475 -2.0520766 3
26.279215 5.8568978 -2.0544982 3
26.078421 6.4753809 -2.1000021 3
26.310209 6.8012605 -2.093287 3
26.02235 10.210799 -2.0093818 3
26.213902 10.534609 -2.00541 3
26.200998 11.775906 -2.1161764 5
26.079515 12.726546 -2.1697519 5
26.161674 13.038277 -2.0904937 4
26.150047 13.303641 -2.0096083 3
26.017391 13.836884 -2.0348635 3
26.232342 14.114474 -2.0248945 3
26.110443 14.494946 -2.00442 3
26.244232 16.971628 -2.0630913 8
26.136238 17.565016 -2.1707289 6
26.106092 18.856096 -2.2373536 6
26.299116 24.581053 -2.2124605 7
26.052135 25.145773 -2.0438855 0
26.202744 25.227739 -2.0369761 0
26.139217 29.341406 -2.1458251 1
26.136005 32.146427 -2.0017912 5
26.004045 32.429676 -2.0953493 6
26.309341 35.527901 -2.1956649 5
26.171169 37.783413 -2.0369089 5
26.274206 38.186779 -2.0836987 5
26.243513 38.637691 -2.1928287 5.25
26.37796 41.913883 -2.1037807 7
26.344227 42.653774 -2.0017967 6
26.168467 43.442001 -2.2135289 6.5
26.284191 43.69368 -2.0789688 6
26.309088 44.147312 -2.257303 6
26.038 44.456379 -2.262567 6
26.293377 47.515049 -2.1324818 8
26.023485 50.544308 -2.1447482 7
26.343939 53.400883 -2.1754642 8
26.19788 56.200069 -2.1803658 8
26.385317 56.736336 -2.1187668 9
26.080318 56.818989 -2.3079753 8
26.180618 -14.13594 -1.737957 6.5454545
26.267004 -13.761915 -1.7318742 6.5714288
26.111202 -13.373324 -1.7366998 6
26.172953 -12.983504 -1.7012612 5
26.164637 -12.598734 -1.7272047 6.181818
26.211279 -12.123585 -1.7398456 5.3636365
26.213316 -11.846954 -1.7715763 4.3125
26.212379 -11.412681 -1.7795247 4.1999998
26.244608 -10.993258 -1.797119 4.2142859
26.223078 -10.588653 -1.8295151 3.3636363
26.233009 -10.157796 -1.8020527 3.090909
26.216825 -9.8008671 -1.7963732 4.3076925
26.160267 -9.3969145 -1.8001847 5.5
26.203741 -8.9929819 -1.7927117 4.1999998
26.218815 -8.6427908 -1.8008224 4.909091
26.203121 -8.1618452 -1.7982147 4.2941175
26.24547 -7.7987299 -1.8130921 4.3157897
26.235689 -7.3899655 -1.8053575 2.8333333
26.180843 -7.016675 -1.8436465 2.5555556
26.213665 -6.5991244 -1.8254418 3.1153846
26.248783 -6.2085156 -1.8054581 2.625
26.159065 -5.7636123 -1.8208573 4.0714288
26.233395 -5.3678093 -1.7998838 3.1052632
26.196129 -4.9932261 -1.810872 3.8235295
26.200598 -4.6247249 -1.8320632 2.9583333
26.222601 -4.1770654 -1.8155698 2.5999999
26.211655 -3.7839396 -1.8654833 2.4074075
26.17234 -3.3818054 -1.841729 2.7142856
26.187248 -3.0194314 -1.8200623 3.2
26.15766 -2.5998077 -1.8728458 2.75
26.199053 -2.196101 -1.820143 2.6400001
26.204525 -1.8122363 -1.7957537 3
26.204649 -1.3837608 -1.7804067 4.75
26.223339 -1.0096997 -1.7755039 3.6666667
26.2232 -0.58617401 -1.7992069 4.75
26.227806 -0.21430703 -1.8239028 4
26.152641 0.20873286 -1.8092569 3.6666667
26.175629 0.59620494 -1.8167493 3.5714285
26.213865 1.0126458 -1.8248706 3.4736843
26.26178 1.4435921 -1.8385317 3.4615386
26.221529 1.8168312 -1.7818594 4.2962961
26.19162 2.2244265 -1.7901701 5.2666669
26.208599 2.5462146 -1.8603432 3.9166667
26.187256 3.018923 -1.8702738 3.9375
26.156435 3.3871822 -1.8435942 4.8000002
26.248707 3.7979364 -1.8308531 4.25
26.18557 4.1953087 -1.7453914 5.7058825
26.190392 4.6004963 -1.7960646 5.0500002
26.194536 4.9251738 -1.8587619 4.25
26.188965 5.4717889 -1.8264877 3.8333333
26.112 5.784493 -1.8439072 3.8
26.191454 6.203527 -1.8807975 3.3846154
26.222122 6.6334624 -1.7789944 5.0625
26.225534 7.031765 -1.8259422 3.4444444
26.202618 7.4159956 -1.8553087 3.1666667
26.182959 7.7978597 -1.8029902 4.2857141
26.196436 8.1369762 -1.8103083 4.2857141
26.198139 8.5624094 -1.845536 2.9000001
26.207567 8.9309769 -1.7918581 3.4444444
26.180187 9.3519716 -1.8708862 1.75
26.321661 9.8096466 -1.7692972 3.4000001
26.18915 10.177837 -1.7657113 4.2307692
26.198898 10.6499 -1.7103997 6.5
26.259144 11.051743 -1.8575648 3.0999999
26.194384 11.455577 -1.8559057 1.625
26.172581 11.836447 -1.8063734 5.2222223
26.199057 12.242418 -1.7580712 3.1428571
26.238459 12.573409 -1.8163172 4
26.194605 12.962378 -1.8371931 2.1666667
26.282558 13.387879 -1.8197761 2.5
26.258217 13.777591 -1.8127149 3.5999999
26.188854 14.181576 -1.820187 2.3333333
26.180794 14.583348 -1.801363 2.4285715
26.217978 15.023753 -1.9669958 3
26.21184 15.429957 -1.9537584 4.75
26.085508 15.819869 -1.8745209 4
26.213688 16.232292 -1.8699856 4.5
26.263449 16.647627 -1.8799969 4
26.250397 17.008846 -1.8577156 4.4444447
26.212233 17.3936 -1.8131214 3.8947368
26.231672 17.788923 -1.8706146 4.875
26.306124 18.081144 -1.8237571 5.5
26.178032 18.929548 -1.9238642 6.5
26.168577 19.384796 -1.8680757 2.8333333
26.251192 19.781361 -1.9065523 5.5
26.117575 20.257986 -1.7213368 6.1999998
26.033562 28.093824 -1.8292826 5
26.364347 28.685011 -1.8399043 5
26.038103 29.854681 -1.9030763 5
26.292957 30.067595 -1.8914423 5
26.232788 31.845121 -1.7799542 6
26.399466 32.38018 -1.9951367 5
26.263531 34.790325 -1.8934637 6
26.068373 36.2747 -1.962544 6
26.077818 37.302372 -1.9835185 5
26.157448 38.051945 -1.7750475 7
26.166275 39.171326 -1.7163104 7
26.13068 41.195969 -1.9361075 6
26.314678 42.247269 -1.9331388 6
26.194702 42.484379 -1.8232592 7
26.176844 43.06778 -1.9943595 6
26.063057 47.007107 -1.7549024 7
26.265923 48.176857 -1.7325763 7
26.175194 48.681351 -1.7967651 7
26.057644 48.99036 -1.8134888 7
26.06197 49.612644 -1.8716339 7
26.338934 50.507362 -1.9175806 7
26.240788 56.660583 -1.7960119 8.666667
26.123859 56.82164 -1.7644925 8.8000002
26.142832 -14.7647 -1.3037965 9
26.189825 -14.208492 -1.3829157 7.2058825
26.262856 -13.828895 -1.4486879 7.25
26.149086 -13.371219 -1.5264345 6.8888888
26.282154 -12.572401 -1.3587224 9
26.120913 -12.235723 -1.3538287 9
26.170843 -10.476703 -1.4862783 8
26.257524 -9.5571165 -1.5934912 7
26.197088 -7.2981424 -1.5721285 8
26.206831 -7.168704 -1.5186671 8
26.257864 -6.2504749 -1.3902966 8
26.315866 -5.7150769 -1.442287 8
26.135658 -5.4226494 -1.4772942 7.6666665
26.19002 -1.3733827 -1.4467038 6.875
26.101494 -0.94834965 -1.5290027 7
26.20088 -0.15361317 -1.4976811 7
26.112141 1.8757007 -1.4692935 6
26.283981 2.3798532 -1.4769585 6
26.264591 2.6435502 -1.5275085 5.6666665
26.184664 3.0441117 -1.5320365 6
26.165398 3.4760356 -1.5609905 6
26.27099 3.7392635 -1.538927 6
26.135448 4.0270362 -1.5173697 6
26.242363 4.7092681 -1.5248625 5.6666665
26.213909 5.0460529 -1.5698954 6
26.373362 5.272768 -1.5972832 7
26.318035 5.8813796 -1.5229181 5
26.160034 6.1802025 -1.5273901 5
26.174889 6.6253681 -1.5594831 5
26.29583 7.0293078 -1.5485885 5
26.128382 7.4064245 -1.5175837 5.3333335
26.040134 7.7986126 -1.5347933 5
26.330736 9.0213938 -1.2883328 5
26.223537 11.184054 -1.4580384 7.5
26.369286 12.161326 -1.5902767 3
26.306444 12.477934 -1.5887061 3
26.118988 13.096877 -1.5901611 3
26.080013 13.394891 -1.5881194 3
26.090864 13.763733 -1.5808809 2
26.073542 14.230389 -1.5520195 5
26.01041 14.520423 -1.5759741 3
26.13081 15.477419 -1.5473017 3.2
26.001331 15.787963 -1.5703626 3
26.076107 16.243883 -1.4989353 1.5
26.032791 16.554214 -1.5707583 3
26.189882 16.887465 -1.5630682 1.6666666
26.191347 17.386995 -1.5338079 2
26.145647 17.700199 -1.5734472 3
26.17996 18.163841 -1.4967246 2.5
26.261705 18.521658 -1.579831 3
26.090685 19.333387 -1.4079851 3.2857144
26.256508 19.906355 -1.4053749 5.5999999
26.246944 20.131992 -1.4103936 6.1333332
26.280739 24.896288 -1.5275017 10
26.184828 48.597424 -1.5971054 8
26.312227 56.74963 -1.5220244 8.5
26.12907 56.853233 -1.5221478 8.666667
26.00786 -14.831472 -1.1627588 9
26.123175 -14.610039 -1.1627259 9
26.189856 -14.201118 -1.0260416 8.1067963
26.339832 -13.874191 -0.99424714 7
26.393597 -11.08657 -1.1473622 9
26.068844 -10.793077 -1.1520411 9
26.338631 8.9338465 -1.0003884 6
26.01108 15.860175 -1.1002264 9
26.057556 19.269407 -1.0741143 6.4285712
26.296656 19.887926 -0.83954501 7.6666665
26.252077 20.161081 -0.96437657 7.375
26.393688 24.767286 -1.1263925 6
26.079054 25.165861 -0.88763916 7
26.131721 56.7215 -0.99109387 9.3999996
26.139914 -14.636623 -0.49618411 10
26.179918 -14.19949 -0.60427696 9.0642204
26.335375 -13.8461 -0.65551615 8.8000002
26.339773 9.0250492 -0.62226421 7.4000001
26.020144 19.198442 -0.77128106 7
26.069963 19.25395 -0.55829805 7.5
26.279484 19.904964 -0.53731048 7
26.199362 20.112679 -0.56171441 6.8625588
26.200195 20.420855 -0.51022238 8.5
26.232227 56.751522 -0.67332524 9.333333
26.218061 56.850998 -0.60692704 9.3571424
26.181738 -14.196303 -0.21048042 9.4908257
26.327711 -13.8207 -0.13594532 9.9165459
26.355328 9.0295 -0.22366235 9
26.046947 19.252529 -0.16508016 8.666667
26.233719 19.921227 -0.23627876 5.7142859
26.259317 20.1754 -0.24182852 7
26.372572 20.404472 -0.1230194 6
26.232691 56.797718 -0.27286792 10
26.166798 56.882442 -0.24393304 10.055555
26.400032 85.713165 -0.05326489 10
26.319693 86.585068 -0.39680442 10
26.07708 -14.638077 0.2200357 11
26.194698 -14.183034 0.21721087 9.9159899
26.280008 -13.854295 0.20630668 10.142858
26.043211 19.249809 0.31176353 10
26.077587 19.997747 0.056255195 8
26.146765 56.690758 0.10593341 10
26.185875 56.859852 0.18496199 10.45
26.353291 85.686089 0.087418228 10
26.179138 -14.186574 0.62821609 11.127108
26.310215 -13.864895 0.66483092 11.54473
26.057993 19.277464 0.66238755 11
26.039431 56.954262 0.79947305 11
26.090256 -14.623479 0.97308308 12
26.198469 -14.193933 0.98925453 12.405714
26.292942 -13.870173 1.0227281 12.288092
26.310925 56.965439 0.80449754 11
26.079977 80.621742 1.1453115 11.0055
26.270046 83.483139 1.1830322 11.0035
26.201044 -14.188708 1.3686955 13.912442
26.292702 -13.831805 1.4025456 13.076923
26.162315 56.869236 1.3345175 12
26.098986 80.612869 1.3833851 11.0115
26.020504 82.694839 1.4240119 11
26.2124 83.114914 1.4389822 11
26.066929 83.414116 1.3760731 11.0625
26.169939 83.697311 1.4142464 11.0645
26.088095 84.522964 1.3625525 11.002
26.351374 84.944351 1.3640494 11.0525
26.131617 -14.541933 1.6763561 13
26.197819 -14.194927 1.7929206 13.866781
26.289415 -13.884558 1.7702738 13.798368
26.369499 81.289864 1.6317072 11.1485
26.140518 83.426132 1.6129136 11.069
26.269655 83.647636 1.620699 11.139
26.139786 -14.601438 2.3634903 14
26.192297 -14.199068 2.245486 14.576492
26.296366 -13.842317 2.2423873 14.582764
26.283794 83.448532 2.0874033 12
26.014803 -14.489578 2.4605086 14
26.198065 -14.197636 2.5664775 15.124294
26.302429 -13.888065 2.6254725 16.400843
26.096172 81.919403 2.5545194 12
26.237185 82.374725 2.7387073 12.02375
26.111847 84.278229 2.6381676 12.0795
26.013296 85.514 2.7573075 12.0835
26.064354 -14.498291 3.1720247 15
26.19396 -14.195075 2.995971 15.518476
26.323341 -13.837464 2.9740055 16.127907
26.263847 82.28363 3.1064303 12.000833
26.233419 82.588913 3.1063647 12.086301
26.139063 82.955597 3.1371658 12.0345
26.241014 83.284485 3.1530519 12
26.090876 83.83802 3.1806056 12
26.300451 85.314644 2.9066458 12.098
26.204105 -14.407693 3.28282 15
26.203491 -14.189942 3.4122944 16.191092
26.299791 -13.908452 3.4338038 17.096443
26.340517 85.08519 3.2005687 12.0075
26.203703 -14.190031 3.7885892 17.032179
26.237841 -13.844427 3.8398192 17.127943
26.026176 -13.494559 3.9014666 17.018999
26.074589 -14.571323 4.0099926 16
26.205021 -14.16526 4.0954576 17.659626
26.233601 -13.807438 4.2004046 17.731819
26.218884 -13.512696 4.162457 17.011499
26.346598 82.271332 4.2957382 13.023
26.224257 82.564728 4.2390552 13.015167
26.117826 82.97525 4.1560149 13.045
26.195654 -13.790689 4.6510096 18.758673
26.296848 -13.566291 4.4591117 17
26.356941 81.753838 4.7393484 13
26.157022 82.292397 4.4717307 13.02625
26.341888 82.5952 4.5128021 13.008375
26.181631 82.95237 4.5016303 13.0345
26.203211 83.3256 4.7247262 13.066999
26.347 85.989761 4.5286636 13.082
26.035883 -14.317465 5.0646567 17
26.20768 -13.810219 4.9919157 18.812069
26.314362 -13.501952 4.9934559 19.011499
26.22056 82.671562 4.9449873 13.000833
26.229574 83.866898 4.9607077 13.002501
26.212793 84.265381 5.0184188 13.004001
26.21018 -13.794171 5.371304 20.183733
26.038507 -13.597694 5.3356609 19
26.17235 83.687943 5.3325415 13.01
26.179003 -13.734995 5.7857556 20.427729
26.063896 -13.511672 5.869679 20.826126
26.199427 -13.726239 6.1148329 20.66
26.130684 -13.563291 6.0761962 19.044001
26.096901 81.84742 6.0076413 14
26.268284 82.160912 6.1922154 14.017499
26.239107 82.641121 6.1564965 14
26.191162 82.937607 6.218658 14.226399
26.110971 83.466606 6.2219877 14.03975
26.256653 83.83226 6.3094153 14
26.199612 84.085083 6.3264256 14.06925
26.303469 83.384796 6.4050474 14.10575
26.217096 84.39341 6.7874141 14
26.215307 84.218903 7.0094595 14.0045
26.31646 81.953537 7.8616681 15
26.202711 82.202217 7.8706412 15.017499
26.259775 82.390541 8.0655022 15.082
26.364395 83.705612 8.0571928 15
26.179602 84.206589 8.1069908 15.0695
26.104429 84.513268 8.139554 15
26.272293 84.191467 8.8801622 15.5435
26.096794 60.123764 13.110656 22.142
26.043936 60.060726 13.921453 22.093
26.375923 59.922112 14.435706 22.083
26.609964 37.61282 -2.5877969 6
26.599838 48.278034 -2.6082098 7
26.524399 -10.815183 -2.0033734 3
26.710678 -10.796528 -2.0818684 3
26.714802 -10.102545 -2.0768998 6
26.530584 -9.4880733 -2.0494447 6
26.62862 -8.6297197 -2.0545707 4
26.656609 -8.1798601 -2.0338798 4.5
26.446285 -7.7232084 -2.0420251 6
26.450674 -6.5879064 -2.0072489 1
26.644716 -6.0245166 -2.012958 5
26.445988 -2.5802147 -2.0136964 3
26.559641 5.851932 -2.0043762 1
26.558502 6.2427545 -2.0297532 2
26.764402 6.5136166 -2.042882 3
26.478483 7.0241456 -2.0880759 3
26.689035 7.2989607 -2.0822134 3
26.573462 12.131114 -2.1057985 5
26.580551 13.221988 -2.1576679 5
26.422747 14.365502 -2.0176806 3
26.614481 14.595032 -2.0091343 3
26.456305 17.884647 -2.1677077 6
26.620222 18.271637 -2.0462065 3.75
26.426365 19.198782 -2.2366171 6
26.751102 19.546108 -2.2367473 6
26.677492 24.47607 -2.2386684 0
26.626068 24.877645 -2.0689158 0
26.483341 25.44688 -2.0422649 0
26.66736 26.159845 -2.0545483 0
26.701002 26.515617 -2.084538 0
26.577751 29.38356 -2.129102 1
26.577633 33.140209 -2.09846 6
26.634607 35.736095 -2.1857057 5
26.470438 37.79105 -2.0476274 5
26.645905 38.22546 -2.0678494 5
26.576958 38.743469 -2.2171156 5
26.564669 39.091999 -2.3003204 5
26.753014 42.530525 -2.1177688 7
26.78631 43.206322 -2.0138257 6
26.617609 44.633968 -2.2634621 6
26.657751 50.585506 -2.106874 7
26.4408 52.889297 -2.1482654 7
26.74334 56.809879 -2.2319903 8
26.544285 -14.114332 -1.7329935 6.5555553
26.61421 -13.740554 -1.746334 5.9629631
26.576788 -13.494133 -1.7560165 6.1111112
26.633261 -12.914888 -1.7111691 6.4285712
26.596434 -12.581026 -1.7161627 3.7272727
26.590117 -12.197624 -1.7719455 3.6153846
26.609652 -11.867785 -1.7782688 4.75
26.622236 -11.428468 -1.8205736 4.3333335
26.622791 -11.000167 -1.7910204 4.125
26.622307 -10.599823 -1.8373442 4.1999998
26.587397 -10.138727 -1.8128808 3.125
26.510206 -9.7592411 -1.7437991 3.7777777
26.535671 -9.3538885 -1.8231763 3.6666667
26.625095 -9.0156641 -1.778545 3.5
26.62813 -8.5874243 -1.7987139 2.7058823
26.559464 -8.2147255 -1.818045 3.8125
26.598106 -7.7922559 -1.782509 4.3333335
26.618118 -7.4193096 -1.7972759 3.6111112
26.617279 -7.0223303 -1.8283273 3.2222223
26.564587 -6.6312151 -1.8212415 3.5
26.520699 -6.1648703 -1.8388031 3
26.621845 -5.8243475 -1.7714421 2.9473684
26.558262 -5.397253 -1.8369875 2.4666667
26.565702 -5.0309186 -1.7880776 3.5999999
26.589962 -4.6091509 -1.8520825 2.5599999
26.646082 -4.220438 -1.8457118 2.3199999
26.597517 -3.7971842 -1.837682 2.3225806
26.625593 -3.4275799 -1.7922542 3.7826087
26.613972 -3.0149486 -1.8108482 3.6111112
26.63699 -2.5818768 -1.8166332 3.5217392
26.616699 -2.1870661 -1.7871305 3.3333333
26.587091 -1.791255 -1.7992477 3.2631578
26.619429 -1.3890944 -1.7857838 3
26.636276 -1.0577216 -1.7859852 4.0588236
26.595615 -0.59077609 -1.8355072 2.7692308
26.608267 -0.1710843 -1.8017614 3.75
26.576502 0.21683259 -1.7996331 4.6153846
26.618944 0.56373376 -1.8224988 3.75
26.635315 1.0504018 -1.763822 4.1333332
26.573391 1.372681 -1.782819 3.5625
26.609348 1.7972475 -1.8233286 3
26.58592 2.1987708 -1.7663429 4.478261
26.612713 2.6166079 -1.8510433 2.8823528
26.59421 3.0035365 -1.8674083 3.3888888
26.640871 3.3449399 -1.88701 2.3
26.644958 3.822999 -1.8894793 2.125
26.640509 4.2052202 -1.8034084 3.7857144
26.620529 4.6198711 -1.8476759 3.3548386
26.631006 4.9756703 -1.8590666 2.5
26.614845 5.3881235 -1.8917689 2.0952382
26.596352 5.7988901 -1.9303308 2.2352941
26.603024 6.1709342 -1.8870711 3.1052632
26.57308 6.6083732 -1.8573773 3.1785715
26.598948 7.0065165 -1.8625299 3.1363637
26.6112 7.4386086 -1.8027574 3.4444444
26.610941 7.7920084 -1.8238164 3.7647059
26.624043 8.2055035 -1.8176322 2.6818182
26.592026 8.6185083 -1.8534513 2.3076923
26.646626 9.0067081 -1.8829341 1.8666667
26.694025 9.3997221 -1.8824017 2.3
26.655256 9.7999573 -1.8716443 1
26.660551 10.212322 -1.8080832 4.090909
26.618092 10.627782 -1.7722731 3.4000001
26.599417 10.974953 -1.8476002 3.3
26.602522 11.393989 -1.8573627 3
26.583609 11.802608 -1.7634184 4
26.539362 12.242399 -1.808463 3
26.644276 12.535845 -1.8236811 3.8571429
26.521524 13.000562 -1.8156066 4.4000001
26.614693 13.38301 -1.9406642 2
26.560337 13.908044 -1.8798553 2.3333333
26.681889 14.180158 -1.7738841 4.1999998
26.524965 14.59305 -1.7375506 3.25
26.543816 15.008962 -1.8776729 3.6666667
26.615988 15.404357 -1.9022608 4.4000001
26.606419 15.826049 -1.8048401 3.5
26.621727 16.226213 -1.8363124 4.5
26.72068 16.553591 -1.8331844 4.3333335
26.659853 17.053545 -1.8910444 3.6666667
26.603765 17.371519 -1.7985687 3.5999999
26.614294 17.801836 -1.8477585 4.5999999
26.573353 18.203726 -1.8223569 4.909091
26.682049 18.609604 -1.9622182 3
26.596113 18.963404 -1.9346452 5.3333335
26.581648 19.493105 -1.9402905 6
26.590206 19.833614 -1.8483826 6
26.546055 20.15843 -1.7674278 5.909091
26.511175 20.461395 -1.8604401 5.5
26.641666 23.104385 -1.8529814 0
26.436316 25.045713 -1.9836313 8
26.509169 30.350649 -1.831537 5.5
26.678213 30.659672 -1.9020648 5
26.458691 32.217068 -1.7861881 6
26.706497 32.547016 -1.8835065 5.5
26.631695 34.971867 -1.8724397 6
26.78298 35.864586 -1.983061 5
26.48048 36.312641 -1.937416 5
26.606224 37.535465 -1.9799902 5
26.70359 37.896488 -1.9910755 5
26.519707 38.456161 -1.7722018 7
26.485893 39.684505 -1.7239581 7
26.566568 40.716293 -1.8781136 6
26.757257 42.369659 -1.9233383 6
26.431875 42.539738 -1.9723529 6
26.666937 42.813702 -1.9503472 6
26.558474 44.676022 -1.8813596 7
26.681498 45.971012 -1.8820678 7
26.592468 46.726131 -1.7219129 7
26.507177 48.326912 -1.6867909 8
26.665876 48.678684 -1.7715843 7
26.588882 49.049625 -1.7747394 7
26.531948 50.341125 -1.9035697 7
26.77849 55.969707 -1.6018615 8
26.467049 56.34193 -1.8125676 8
26.522137 56.675709 -1.7194937 8
26.550634 56.832836 -1.7095798 9
26.562128 -14.146681 -1.387544 7.185185
26.651541 -13.822746 -1.3731654 6.8539324
26.579075 -13.326256 -1.5586731 6.5999999
26.570623 -13.002704 -1.4546951 8.5
26.600365 -12.683603 -1.4021866 9
26.469114 -10.761746 -1.4842685 8
26.557596 -9.7450018 -1.5822062 7
26.696775 -7.7871284 -1.5552434 8
26.500988 -7.4631166 -1.516947 8
26.671021 -6.6479907 -1.3854581 8
26.516279 -6.0420551 -1.5359887 8
26.601957 -5.8371124 -1.482344 7.8571429
26.720139 -2.1704154 -1.5714355 6
26.579628 -1.8359722 -1.4448169 6.875
26.603851 -1.3817595 -1.521831 7
26.476158 -1.0659907 -1.5371612 7
26.568676 -0.55635673 -1.495688 7
26.413134 -0.32327375 -1.4710912 7
26.560301 1.3488147 -1.4551687 6
26.750851 1.7604375 -1.4696463 6
26.640692 2.1441834 -1.5029408 6
26.556837 2.5601921 -1.5469116 5.75
26.592901 3.1146703 -1.5617712 6
26.594925 3.3769109 -1.5300452 6
26.679352 4.2848382 -1.5186099 5
26.585976 4.6073093 -1.5472807 6.25
26.618345 4.9536128 -1.5875349 7
26.573475 5.4445262 -1.5145118 5
26.605717 6.1732144 -1.5616519 5
26.554167 6.5861502 -1.5567462 5.4000001
26.508907 6.995275 -1.5307586 5
26.542494 7.4389138 -1.3947389 7
26.68577 10.206378 -1.5973005 8
26.78244 10.713228 -1.5917057 3
26.72279 11.035995 -1.5901093 3
26.600536 11.354075 -1.5331175 4.8000002
26.60932 11.841688 -1.5818192 3
26.715734 12.193394 -1.5706471 3
26.612795 12.690022 -1.5740864 3
26.503782 13.004765 -1.5794278 3
26.539173 13.413647 -1.5739529 3
26.609308 13.725761 -1.5678928 1.8
26.522562 14.199094 -1.5667464 3
26.54245 14.570989 -1.5630391 3
26.651388 14.996407 -1.5617802 3
26.541439 15.468541 -1.5372158 2.3333333
26.512737 15.808871 -1.5530925 3
26.598799 16.272867 -1.4654342 1
26.568686 16.600264 -1.5438225 4.6666665
26.688786 17.033632 -1.5270933 1.75
26.605473 17.313951 -1.5006008 1.3333334
26.584997 18.133192 -1.4098686 2
26.670019 19.232685 -1.42861 1
26.666658 19.848372 -1.4209542 4.6666665
26.593393 20.160566 -1.4169631 6.3333335
26.586067 24.938677 -1.4825581 5
26.436817 25.816685 -1.4697945 7
26.486725 38.10054 -1.3110824 8
26.735298 49.021709 -1.5813566 8
26.458433 56.79335 -1.5574596 8
26.604181 56.846024 -1.508706 8.6999998
26.586109 -14.400058 -1.1756811 9
26.559563 -14.150243 -1.0117456 8.0560751
26.656824 -13.815605 -1.002026 7.5136986
26.706556 -13.577989 -0.92196715 7
26.748287 -11.3283 -1.1381046 9
26.481396 16.011456 -1.0893438 9
26.60648 19.96385 -1.0617694 7
26.57436 20.129797 -1.0134537 6.9375
26.570459 45.761879 -0.96559644 9
26.616726 56.717377 -0.89485049 9.2857141
26.692558 56.856899 -1.1576657 9
26.404091 84.504128 -0.87174201 10
26.549599 -14.151754 -0.59825486 8.7040815
26.639549 -13.800408 -0.60451746 8.425725
26.560286 -13.575311 -0.53089792 8
26.455633 8.942893 -0.47081992 8
26.6224 19.934338 -0.53760087 7.8931665
26.599524 20.110754 -0.60713053 8.4401665
26.797155 20.430798 -0.54256594 8
26.635195 25.310093 -0.64889812 7
26.532148 56.780548 -0.63418221 10
26.616879 56.885422 -0.59836406 9.2941179
26.541315 -14.139822 -0.20174398 8.9547873
26.616419 -13.803735 -0.18144821 8.9626465
26.698298 -13.568187 -0.16736904 9
26.634735 19.903425 -0.18706393 8.25
26.686985 20.162521 -0.20354474 7.5038004
26.575636 20.419455 -0.16784139 6
26.602974 56.889988 -0.22411621 10.210526
26.670113 85.009064 -0.30890816 10
26.60519 85.326065 -0.26466084 10
26.563139 85.94838 -0.007661229 10
26.522615 -14.141929 0.20954661 8.9644175
26.607246 -13.804072 0.21382463 9.4043646
26.537653 -13.559724 0.27955434 10
26.436775 19.944027 0.063823178 8
26.568739 20.204935 0.16607618 10.021999
26.537416 56.713417 0.11264141 10.285714
26.613405 56.86631 0.19856174 10.4
26.515179 84.422119 0.10188501 10
26.789984 86.000465 0.047215208 10
26.603651 86.554611 0.15146475 10.51925
26.520321 -14.133899 0.57782501 10.552221
26.591824 -13.809163 0.62276435 10.98723
26.664534 56.861343 0.77009583 11
26.406992 86.383858 0.58696294 11.0235
26.515507 -14.158052 0.9756707 12.251075
26.584524 -13.811544 1.0001595 12.535913
26.717699 56.984432 0.82507324 11.0395
26.784758 84.853912 0.98259008 11.0125
26.716343 85.256462 1.0297818 11.007
26.49687 -14.139861 1.3862932 13.752329
26.586145 -13.812067 1.3711358 13.948325
26.622679 56.918835 1.3538405 12
26.613811 81.98085 1.2006735 11.01
26.531199 82.723999 1.4470335 11
26.627602 82.875031 1.4742429 11.0115
26.532764 83.691711 1.401228 11.00275
26.41374 84.215172 1.4261898 11.005
26.631363 84.424812 1.4328643 11
26.56686 85.180939 1.3136728 11.0005
26.607018 85.253059 1.3456383 11
26.561769 -14.427068 1.7686471 13
26.501804 -14.125132 1.8119005 14.229339
26.581039 -13.815551 1.7880963 14.397852
26.75305 82.623909 1.6751106 11.1435
26.598549 83.621429 1.638913 11.139
26.684879 85.311539 1.6886144 11.1405
26.483572 -14.1376 2.2227829 14.632824
26.573668 -13.817213 2.2157159 14.994493
26.622173 -13.58903 2.0306387 14
26.590261 83.579628 2.1041667 12
26.575384 85.289146 2.0981483 12.044833
26.469055 -14.113665 2.5859897 15.485354
26.571308 -13.816549 2.594198 15.720595
26.582666 83.045403 2.6008492 12.034124
26.784838 83.430031 2.7492359 12
26.535696 85.640038 2.6652019 12.082
26.467361 -14.129151 2.9846466 15.59573
26.56885 -13.809488 2.9917281 15.95412
26.524294 82.214081 3.1250694 12.044126
26.534906 82.643532 3.1202984 12.000667
26.463894 82.979706 3.0203836 12
26.698248 83.323647 2.9524264 12
26.464409 83.73835 3.186353 12
26.610113 85.468697 3.0246565 12.056
26.44733 -14.412968 3.3042624 15
26.46088 -14.115066 3.3868661 16.688316
26.574608 -13.823274 3.4163554 16.578552
26.729893 81.698723 3.2152376 12
26.56793 82.834587 3.2088568 12.166
26.484957 83.339622 3.2577312 12.01
26.634029 85.084076 3.2263477 12.0055
26.569336 85.667053 3.2148798 12.00025
26.449764 -14.116831 3.745182 16.31579
26.566759 -13.814037 3.7871664 16.930235
26.725012 -13.563914 3.7767932 16.0005
26.654661 85.511978 3.9809709 14.042
26.557905 -14.202111 4.1237307 17.266064
26.610804 -13.803652 4.1803598 17.695316
26.592022 82.237228 4.3939881 13
26.698627 82.473152 4.2783799 13
26.584984 -13.792108 4.6120076 18.558384
26.672794 -13.521237 4.6928229 18.01
26.638666 82.302734 4.7843404 13
26.599739 82.575256 4.5318365 13.089667
26.606833 83.047325 4.4524188 13.037333
26.619596 83.483727 4.6513014 13.040166
26.465891 83.644226 4.7669044 13.0695
26.575186 -14.337162 5.1406078 17
26.628372 -13.797941 4.9843469 18.877842
26.419069 81.910469 4.8117437 13
26.683929 82.342812 4.8298259 13
26.576019 82.689903 4.9672093 13.005875
26.69322 83.541168 5.1521697 13.0125
26.460146 83.769333 4.8704085 13.002
26.493006 84.034851 4.9347444 13.071751
26.776817 86.913696 4.885149 13
26.50489 -14.441145 5.2310023 17
26.712898 -14.337696 5.304769 17.024
26.598038 -13.803367 5.3632851 20.50388
26.491728 -13.565298 5.5316529 19.0695
26.711781 83.026802 5.2832952 13.009
26.597216 -13.741266 5.7791476 20.511
26.579313 -13.544439 5.8696656 21.550877
26.599377 -13.677432 6.1659422 20.730667
26.697142 -13.532879 6.0719414 21.0625
26.65848 82.19664 6.2654357 14.017938
26.526476 82.577187 6.1595578 14.04625
26.568518 82.956314 6.0967698 14
26.614347 83.853989 6.3215289 14.028
26.427166 82.053085 6.7404513 14
26.714729 82.764656 6.4389539 14
26.494967 83.720894 6.456553 14.004
26.614691 81.815323 7.0309258 14
26.583754 82.060715 6.9022412 14
26.401037 84.240761 7.035584 14.0235
26.600653 84.466553 6.8077817 14
26.755186 84.274078 7.2099891 14.017
26.665632 81.958389 7.8700352 15
26.647154 82.275574 7.8793235 15
26.674118 83.904755 8.1136408 15
26.561937 84.363724 8.128623 15
26.702343 82.176437 8.6297779 16
26.799332 106.509 12.894407 16.105
26.436754 60.167828 13.273606 22.117001
26.723772 106.4004 16.136509 17.098
27.197393 48.661392 -2.5942252 7
26.983307 -12.555142 -2.1008027 6
26.973774 -10.77688 -2.0766416 3
27.069172 -9.8324947 -2.0416114 6
26.890175 -9.2329245 -2.0154593 6
27.073145 -8.732049 -2.0171657 3
26.919559 -8.1663094 -2.0301707 4
27.075115 -7.987709 -2.0117872 6
26.813374 -7.5238643 -2.0138187 6
26.884815 6.6520023 -2.0382688 3
27.124826 6.9236722 -2.0298114 3
26.885641 7.5782299 -2.0807765 3
27.062054 7.8323855 -2.0809336 3
26.821985 12.377293 -2.1009738 5
27.06583 12.636774 -2.0990405 5
26.834715 13.464285 -2.1518266 5
27.110775 13.681129 -2.1412568 5
26.802475 17.017166 -2.0553875 8
26.959873 18.612211 -2.0866964 4.5
27.006023 18.971945 -2.0103068 3
27.13184 19.779697 -2.2212176 6
26.812035 25.077057 -2.2840571 6
27.065228 25.436796 -2.0607915 0
26.870819 25.656425 -2.0325184 0
26.914394 26.172373 -2.0501993 0
27.042557 26.598351 -2.091871 0
27.071615 28.284092 -2.2424617 1
27.023947 29.452734 -2.1216049 1
26.903261 36.079811 -2.1970012 5
27.17643 36.431633 -2.2096915 5
26.850143 37.75861 -2.0338025 5
27.025715 38.300232 -2.0569296 5
26.993521 38.691128 -2.1864901 5
27.019455 39.02132 -2.2590411 5
26.938026 39.449505 -2.0651395 6
26.926945 40.601746 -2.2868662 7
26.947659 42.044037 -2.1852705 6
26.820251 43.193249 -2.0342569 6
27.004824 44.785435 -2.2355072 6
26.964344 48.044201 -2.1190505 8
27.184216 51.055988 -2.1065228 7
27.138454 52.671478 -2.096771 7
26.80879 52.802956 -2.2392333 8
26.919432 56.639965 -2.1582196 8
27.023848 56.89645 -2.3255596 8
26.992853 -13.696596 -1.7496412 6.4285712
27.073156 -13.433892 -1.7370934 5.8947368
27.092096 -12.980964 -1.7232796 5.3157897
27.031206 -12.646384 -1.7251457 5.1999998
27.007395 -12.221082 -1.7556769 5
27.028263 -11.793124 -1.7287256 4.4545455
26.917746 -11.370175 -1.8184521 4.8571429
27.059885 -11.003262 -1.7867733 3.9000001
27.003799 -10.602272 -1.7867736 4.625
27.011999 -10.229855 -1.7976168 4.1875
26.986715 -9.8221092 -1.7845309 3.75
27.018232 -9.3805752 -1.7719471 4.1764708
27.005747 -9.0001602 -1.8034724 3.75
27.040226 -8.6067562 -1.7922162 4.1666665
26.982143 -8.1961231 -1.7849593 3.8888888
27.0427 -7.8279486 -1.7992212 4.2352943
27.039175 -7.4284191 -1.8001308 4.125
26.986252 -6.9934998 -1.7923512 4
27.030977 -6.5895166 -1.8019748 3.3157895
27.019655 -6.1955099 -1.7709508 4.1199999
26.99012 -5.8241787 -1.7998569 3.6111112
27.028454 -5.3703256 -1.7776109 3.4761906
27.015188 -4.9823508 -1.8098993 3.0833333
26.988777 -4.5540848 -1.8538069 2.3548386
26.980589 -4.2236438 -1.8161297 2.96
26.978983 -3.8012552 -1.8199967 2.3461537
26.96162 -3.381881 -1.8065163 2.5882354
27.013807 -2.9924085 -1.7799499 3.1428571
26.98665 -2.6080136 -1.8117846 2.7575758
26.993185 -2.1979232 -1.8152754 2.7692308
27.003319 -1.8052167 -1.8123801 3.1904762
27.011705 -1.3744158 -1.803202 4.2666669
26.992472 -0.97239053 -1.797393 2.2173913
27.021271 -0.57463551 -1.8526367 2.7619047
27.020302 -0.19399449 -1.7974564 3.8888888
27.009331 0.16224632 -1.7977204 4
27.070047 0.57684809 -1.7681504 3.6666667
26.987391 0.9639172 -1.76579 4.125
27.043486 1.4149122 -1.8001293 3
27.001534 1.8378901 -1.8152704 3.090909
26.986969 2.1678903 -1.8101873 3.28
27.00934 2.6195207 -1.8614084 2.8421052
27.012783 3.0331571 -1.8796953 2.5
26.993837 3.4222353 -1.8929441 1.7333333
26.93627 3.8399181 -1.8366396 3.4444444
27.018761 4.1550121 -1.7832004 3.8095238
27.001947 4.6234412 -1.7885438 4.173913
26.986158 5.0296187 -1.8270309 3.2142856
27.03055 5.4300756 -1.8278017 3.7777777
27.004387 5.74614 -1.8546879 2.6666667
26.992237 6.1772079 -1.8577938 2.8125
26.988029 6.5914407 -1.8400666 4
27.010056 7.0089307 -1.8018665 3.9411764
26.993896 7.3957253 -1.8005693 2.7272727
26.969721 7.8188882 -1.8110259 2.7916667
26.968775 8.2153597 -1.8619727 2.2666667
27.056726 8.6155472 -1.847065 2.5384614
26.990841 8.9514246 -1.826793 2.090909
27.060974 9.3969498 -1.8167751 1.75
26.956093 9.7877874 -1.7945998 3.375
27.047831 10.226597 -1.7957217 4
26.962366 10.593305 -1.9164149 1
26.968412 10.982712 -1.879639 3.3846154
27.048599 11.438606 -1.8852882 1.6666666
26.972624 11.793136 -1.845611 2.8
27.053419 12.219287 -1.8216922 2.9230769
26.976061 12.594278 -1.849715 4.1999998
26.992258 13.030607 -1.8922822 3.4000001
27.014523 13.222259 -1.8334427 6.5
26.993969 13.784183 -1.892761 2
27.04664 14.190202 -1.7284714 3.4000001
27.052376 14.570139 -1.7795893 2.8571429
27.041342 15.012427 -1.8437127 3
26.998753 15.483872 -1.8711724 3.1428571
27.043312 15.822522 -1.9466547 3.6666667
26.992832 16.244905 -1.8284452 2.5999999
27.019239 16.674175 -1.8079503 3.6666667
27.009581 17.044388 -1.7365043 3.5999999
26.974037 17.36211 -1.7385769 3
27.090458 17.796005 -1.7580107 5.3333335
27.08168 18.116638 -1.9778863 6
26.91799 18.622837 -1.8401159 4.75
26.906147 18.96439 -1.9390363 3.3333333
27.097874 19.357979 -1.918972 4.3333335
27.067177 19.897295 -1.7989125 5.25
27.103905 20.264545 -1.7405239 7.5
27.097361 22.943396 -1.8285635 0
26.805208 25.108536 -1.6961657 0
26.897114 31.049944 -1.8506875 5.5
27.041193 31.339714 -1.9272935 5
27.078007 32.673214 -1.7596349 6
26.912157 32.881386 -1.9894224 5
26.993275 35.507206 -1.9164772 5.5
27.100805 35.873653 -1.9046259 6
26.846331 36.297482 -1.9286175 5
27.12204 37.775326 -1.96772 5
26.824734 39.018635 -1.7855021 7
26.840866 40.130192 -1.725004 7
27.035423 40.496048 -1.8950487 6
26.855778 42.229908 -1.7553141 7
26.94372 42.486992 -1.9438039 6
27.142187 46.231121 -1.7694446 7
26.801374 48.388317 -1.7258447 7
26.838106 48.585651 -1.8058085 7
27.073803 48.999901 -1.7202073 7.5
26.966921 49.597927 -1.8302904 7
27.025723 50.322193 -1.6278553 8
27.166296 56.691101 -1.755303 8
27.026741 56.865406 -1.730215 9
26.99548 -14.098331 -1.3607153 8.5
