# .PCD v0.7 - Point Cloud Data file format
VERSION 0.7
FIELDS x y z intensity
SIZE 4 4 4 4
TYPE F F F F
COUNT 1 1 1 1
WIDTH 1222
HEIGHT 1
VIEWPOINT 0 0 0 1 0 0 0
POINTS 1222
DATA ascii
-25.401575 0.13558203 -1.8072835 8.6000004
-25.391121 -20.04064 -1.3085742 10
-25.507204 -19.778358 -1.4029313 9.5
-25.581184 -19.479183 -1.2574823 10
-25.429192 -0.062615268 -1.5409077 8
-25.458689 0.049566355 -1.2039608 9
-25.468676 13.261186 -1.384865 11.0745
-25.513256 -19.673559 -0.92135292 10
-25.534601 -19.450094 -1.0171351 10
-25.411777 -0.037385676 -1.059543 9
-25.420454 0.22093783 -0.98873806 11.061168
-25.37575 -20.080793 -0.49694234 11
-25.447041 -19.749163 -0.57819134 11.0105
-25.544325 -19.414566 -0.56081474 11.004063
-25.464834 -0.037918873 -0.60204506 10
-25.451494 0.037616566 -0.65762866 10
-25.457596 -19.658451 -0.24642138 11
-25.59054 -19.469063 -0.22340399 10.9
-25.276379 -0.075153358 -0.16435491 11.114599
-25.421202 0.23866144 -0.1453474 11.690563
-25.406712 -20.056448 0.31099558 12
-25.469603 -19.713726 0.29998413 11.754929
-25.509634 -19.468725 0.19943464 11.5
-25.42565 -19.044523 0.31782377 11.871786
-25.384281 -18.604338 0.26355585 12.016167
-25.513559 -17.633066 0.39143768 12.1065
-25.473692 -0.16530623 0.028162375 12.082
-25.461472 0.17037208 0.18785734 12.023188
-25.587372 -19.839144 0.52256513 12
-25.502447 -19.472212 0.57113433 12
-25.443781 -18.81539 0.52425623 12.1155
-25.424782 -18.572216 0.47159994 12.05325
-25.486822 -18.180937 0.47348958 12.032572
-25.51539 -17.81341 0.47086212 12.05875
-25.572922 -17.381664 0.4385238 12.0325
-25.579069 -17.036089 0.43028277 12
-25.274782 -0.071459681 0.44985422 12.152
-25.314093 0.26802659 0.56182992 12.6854
-25.431805 -20.040171 1.1264518 13
-25.481808 -19.771742 1.1551491 13.029125
-25.53443 -19.479237 1.0570884 12.6855
-25.575724 -19.199327 0.85915703 12
-25.345774 0.19961978 0.87907314 13.0505
-25.344303 0.47328871 0.83039325 13
-25.418224 -19.717102 1.4662396 13.048167
-25.560389 -19.576387 1.4007869 13.0235
-25.211737 -0.61293793 1.3384492 14.123
-25.392706 0.23109555 1.3891283 14.093599
-25.357977 0.49602577 1.3861027 14
-25.450624 -20.019531 1.9250652 14
-25.58626 -19.661652 1.8349428 14
-25.566168 -19.535236 1.9596492 14
-25.426836 0.14320166 1.7530978 14.459144
-25.271957 0.44445667 1.9517934 15.0835
-25.353926 -19.792244 2.1392655 14
-25.480556 -19.556847 2.0497818 14.017334
-25.419546 0.31166151 2.3244674 15.081
-25.288576 0.49698889 2.3135564 15
-25.46139 -19.625448 2.7091961 15.1445
-25.496817 -19.481392 2.5143428 15
-25.383564 -0.78602004 2.5434749 16.153
-25.476324 0.097266063 2.5275378 15.577714
-25.493589 -19.778183 2.9149179 15
-25.438385 -19.445992 2.9931078 15.242944
-25.546162 -19.129679 2.9475219 15
-25.221666 0.29244712 3.0686219 16.553749
-25.392614 -19.805727 3.3745558 16
-25.348526 -0.15044957 3.294673 16.62125
-25.443647 0.27974159 3.2649653 16.734335
-25.383179 0.52817416 3.2672448 16
-25.489254 -19.786226 3.7406428 16
-25.401451 -19.444965 3.8768349 16.166666
-25.377718 -19.1094 3.877002 16.0065
-25.465265 -18.071684 3.8881843 16.0315
-25.212809 -17.88129 3.7838233 17.129499
-25.229128 -2.4502304 3.8892646 19.130501
-25.36133 -19.315735 4.0947733 16.666666
-25.422516 -19.075768 4.1519313 17
-25.412527 -18.139765 4.0489602 17.126999
-25.392063 -14.495425 4.3544087 19.129999
-25.590607 -9.6114597 4.3957372 17.0135
-25.345528 -7.3497052 4.3450651 19.171499
-25.238853 -5.9332285 4.3489146 17.0865
-25.312767 -4.80896 4.0601854 19.158501
-25.412516 -2.8603022 4.0331569 19.125999
-25.456005 -2.4988663 4.0247641 19.133499
-25.245005 -15.662841 4.4481115 19.127001
-25.432163 -15.354526 4.466888 19.125166
-25.46423 -14.990132 4.4795213 19.120333
-25.304144 -14.492712 4.500875 19.134501
-25.524628 -13.224444 4.6129346 19.109501
-25.504705 -12.566726 4.6743121 19.105
-25.448677 -12.003004 4.4588251 17.092501
-25.552408 -11.768433 4.7219677 19.1005
-25.562878 -9.4250889 4.5166926 17.015499
-25.551056 -8.9271336 4.787158 19.092501
-25.308125 -8.5026016 4.482121 19.172001
-24.926445 -6.7359705 -2.8647015 6
-25.079536 -5.917439 -2.8749981 6
-25.181057 -5.5106549 -2.8844135 6
-24.846767 -3.6479883 -2.9049292 5
-24.841633 -3.2860556 -2.9056089 5
-24.879704 -2.924612 -2.9130526 5
-24.908909 -2.558363 -2.9202106 5
-24.914429 -2.1952982 -2.9249971 5
-24.830761 -1.2823552 -2.8425519 6
-25.009035 -0.57286358 -2.9874775 6.3333335
-24.986317 -0.22653154 -2.8545916 6
-24.881001 -15.914797 -2.6888816 6
-24.932812 -15.517797 -2.6977859 6
-24.99493 -15.112899 -2.7088509 6
-24.99087 -14.697818 -2.7124164 6
-24.975904 -14.287982 -2.7153311 6
-24.873983 -13.86016 -2.7081449 6
-24.82641 -13.440825 -2.7086172 6
-25.064014 -0.48037121 -2.6718848 6.25
-25.050388 -0.10248061 -2.696523 6
-25.075691 0.15192635 -2.5983007 9
-24.930899 -19.549513 -2.3129413 8
-25.168243 -0.094934031 -2.1715281 7
-24.848043 12.892468 -2.0977402 9
-24.874992 0.29272467 -1.7923226 10
-25.131044 0.072434813 -1.3800256 9
-25.167604 -19.728308 -0.80452508 9
-25.073536 0.2146662 -0.81745368 11.041
-25.147722 0.43374437 -1.0054351 11
-24.993774 -19.814098 -0.64798629 11
-25.011127 -0.029268628 -0.40572613 11.0225
-25.031382 0.081781968 -0.21985689 11.080833
-25.024139 0.47475505 -0.10818055 12
-25.006006 -19.467686 0.19803657 11.726833
-24.895922 -18.874884 0.38465944 12.0995
-24.87496 -18.679487 0.29197779 12.0515
-24.965332 -0.66731435 0.2330741 12.1165
-25.001406 0.18708514 0.20035011 12
-25.033298 -19.674948 0.6197769 12.097667
-25.065769 -18.825201 0.63974792 12.13275
-24.925793 -18.704111 0.50993133 12.0985
-25.041119 0.24689566 0.63017911 13.044499
-25.046934 0.4444249 0.47807378 13.016
-24.8962 -19.757141 1.0870881 13
-25.017687 -19.412283 0.98307961 12.4455
-24.994457 0.25847763 0.94252455 13.467928
-25.1359 -19.791885 1.360752 13
-24.874733 -19.488062 1.3135937 13.0255
-24.986303 0.15556403 1.3654402 14
-25.068529 0.52368385 1.3756136 14
-25.102713 -19.799494 1.947973 14
-25.046272 -19.568027 1.9956914 14.045
-24.861397 -0.00030084144 1.8809201 15
-24.910187 0.1342552 1.8652842 15.02525
-25.043941 -19.67078 2.0553792 14.0735
-24.965122 -19.559711 2.1037199 14.088751
-24.920889 0.14318693 2.2805338 15.78175
-25.165308 -19.72702 2.69103 15
-25.032763 -19.459154 2.5956933 15.13025
-24.93869 -0.69134915 2.5656505 16.1625
-24.969702 -0.039848149 2.6214778 16.094999
-24.917067 0.14432502 2.477102 15.826438
-25.075056 0.43258795 2.55497 15
-25.079576 -19.799334 3.0770478 15
-25.023407 -19.300087 2.9796484 15.032001
-24.986565 0.31671259 3.042619 16.5
-24.818336 0.40838337 2.9356778 16
-24.943663 -19.573067 3.3430281 16.146999
-25.103043 -0.2210194 3.3745747 17.1005
-25.069195 0.33520871 3.2712662 16.598499
-25.000628 0.58741021 3.2355635 16
-25.034784 -19.218721 3.8917048 17.1355
-24.95178 -19.173483 3.9263327 16.028
-24.951544 -4.1479778 3.9774668 19.161751
-25.151932 -19.29141 4.1160579 17.07
-25.139116 -18.707397 4.1158791 17.146
-24.864607 -17.968988 4.0211601 17.147999
-25.03356 -6.0524735 4.228828 19.17
-24.824768 -5.2261686 4.1594634 19.169001
-25.111664 -3.4130328 4.0096188 19.169001
-25.178032 -15.68666 4.4230542 19.1315
-25.004065 -14.810164 4.4754 19.135
-24.555849 -7.2674356 -2.866061 7
-24.462574 -5.4205775 -2.8588262 5
-24.557154 -5.0747414 -2.8687627 5
-24.636278 -4.7219181 -2.8774147 5
-24.743141 -4.1814208 -2.8905075 5
-24.500788 12.983193 -2.8835087 9
-24.507534 -14.35739 -2.694715 7
-24.551268 12.682357 -2.7373412 8
-24.423971 -19.394615 -2.2799981 8
-24.685801 -0.099548995 -2.2056932 9
-24.725107 0.068543069 -2.2286825 7
-24.591557 13.134134 -2.1979346 10
-24.409769 0.34328073 -1.7055737 10
-24.624184 0.34625408 -1.0255162 11.043667
-24.490906 0.2062618 -0.1960007 11.577875
-24.473221 0.5803647 -0.11348295 12
-24.589205 -19.458229 0.29135305 11.62639
-24.703096 0.37346539 0.029708454 12.082
-24.561514 -19.67218 0.54235983 12
-24.632597 -19.51564 0.54086208 12.025249
-24.72769 -18.924274 0.44688916 12.108
-24.73 -0.034541253 0.7420947 13.127
-24.577812 0.24962671 0.65148538 13.057001
-24.738207 0.59301603 0.64817035 13
-24.567373 -19.381718 1.1180549 13.0225
-24.59997 -0.058431197 0.91580057 13.61475
-24.581043 0.22741263 0.83574992 13.08125
-24.728687 0.43055522 1.1074737 14
-24.707277 -19.611 1.2273389 13.1315
-24.541552 -19.505426 1.387617 13.100333
-24.636583 0.30114317 1.3661551 14.056125
-24.652905 0.51843238 1.3643444 14.032
-24.488375 -19.425678 1.7391329 14.1145
-24.763702 0.18262033 1.7852069 14.76025
-24.783094 0.42919058 1.910535 15
-24.640757 -19.657516 2.158509 14
-24.665047 -19.0942 2.0049603 14.042
-24.635828 0.22886269 2.3420582 15.733833
-24.676882 0.53690606 2.2770348 15
-24.68326 -19.459841 2.664434 15.147
-24.7766 0.13428158 2.4389687 16
-24.682199 0.46617967 2.4609168 15
-24.779205 -19.681065 2.8919449 15
-24.606665 -19.327774 3.0076287 15.399333
-24.413305 -19.181337 2.9701445 15.0255
-24.496563 0.35576743 3.0964489 17.029875
-24.482319 0.42447332 3.1427765 17.1215
-24.658524 -19.51932 3.3173306 16.149332
-24.763838 -3.6755292 3.2998407 17.167
-24.664194 0.54516202 3.2360127 16.032
-24.498674 -18.976883 3.8532405 16.059
-24.400555 -17.907665 3.8376942 16.025499
-24.789467 -2.436574 3.8565874 19.1145
-24.621056 -19.32439 4.0349798 17.112499
-24.760099 -19.174694 4.0780702 17.144501
-24.545202 -16.304552 4.3827529 19.130249
-24.44771 -15.796963 4.3628168 19.122999
-24.781807 -14.443324 4.3412685 19.117001
-24.476959 -7.3267655 4.3698716 19.172001
-24.601978 -6.6382279 4.250957 19.17
-24.652761 -6.2412262 4.2414861 19.1695
-24.579018 -16.086296 4.4207325 19.118999
-24.553488 -15.069086 4.418788 19.1355
-24.181156 -7.7448831 -2.8553743 7
-24.270039 -6.1101336 -2.8410401 5
-24.364594 -5.7641354 -2.8492594 5
-24.261919 -4.2048221 -2.9443841 8
-24.340277 -2.9743345 -2.8033166 6
-24.093092 -1.9582043 -3.0248439 8
-24.309242 13.005676 -3.0557504 8
-24.21368 -15.244909 -2.7038763 6
-24.211102 -14.844736 -2.7070942 6
-24.214127 -14.432593 -2.7119446 6
-24.195965 -14.027411 -2.714792 6
-24.276762 -13.757824 -2.7057936 6.5
-24.087475 -3.7966166 -2.7876794 6
-24.217705 -3.3936737 -2.7956402 6
-24.349567 0.25752819 -2.54656 9
-24.07127 12.681623 -2.5161152 9
-24.228052 0.041560367 -2.0973349 7
-24.274485 12.893242 -2.3609624 9
-24.316 -0.028086834 -1.9203027 7
-24.202457 0.14586179 -1.7518293 7.8000002
-24.068161 0.51894474 -1.7865402 10
-24.180847 0.15723392 -1.3070011 8.833333
-24.125084 13.315009 -1.3327676 10
-24.280622 -0.016954161 -1.0467553 9
-24.235546 0.10598075 -1.0971466 9.333333
-24.123072 0.52683473 -0.99232125 11.016001
-24.091795 -19.383362 -0.74512953 9
-24.026703 -19.03326 -0.53992099 11.0765
-24.22336 0.19755693 -0.6640259 10.3218
-24.152437 13.353187 -0.66852558 11.1065
-24.085669 -19.140923 -0.29628456 11.0265
-24.172083 0.23658001 -0.19978434 11.478444
-24.177977 0.49869853 -0.21095215 12.029401
-24.219858 -19.696434 0.27590758 11.666667
-24.233393 -19.497454 0.32164979 11.381667
-24.225254 -0.5186165 0.23318268 12.12175
-24.10021 0.55386931 0.38878104 13.0805
-24.140518 -19.636881 0.52178758 12
-24.323299 -18.751709 0.48493394 12.122
-24.251335 0.32734877 0.61818033 13.060916
-24.326235 0.53369051 0.54712045 13.040751
-24.237663 -19.310398 1.0349387 12.64395
-24.26877 0.28205195 1.0249043 14
-24.218451 0.59990424 1.1048011 14.08525
-24.065298 -19.602753 1.419089 13
-24.225609 -19.502228 1.3841934 13.0382
-24.290775 0.21293715 1.4335122 14.078875
-24.045691 0.45710179 1.4927267 14
-24.348585 -19.627644 1.6613334 14.123
-24.211813 -19.358473 1.7209244 14.086166
-24.045343 -19.133045 1.9394108 14.01475
-24.240097 0.23762897 1.7241762 15.053999
-24.143955 0.56190163 1.8791739 15.08175
-24.092754 -19.223379 2.0588906 14.022
-24.014214 -19.165306 2.0262067 14
-24.269806 0.25573394 2.3115172 16.062635
-24.159115 0.45951602 2.2228954 15.075833
-24.278658 0.20427603 2.5568662 16.091667
-24.151958 0.55856669 2.4991179 15.54375
-24.185526 -19.314339 2.9892161 15.4
-24.152168 -19.068466 2.890775 15.024834
-24.275743 0.33177021 3.0504832 17
-24.231955 0.42498037 3.1358349 17.115
-24.111542 -9.3836956 3.5310197 17.13625
-24.054098 -9.1857281 3.4188926 16.018499
-24.019169 -19.217485 3.8621311 16
-24.255093 -19.087101 3.7965269 16.573999
-24.00588 -3.7208459 3.8074999 19.1695
-24.142099 -19.086863 4.023314 17.146999
-24.224546 -16.609528 4.3594708 19.130749
-24.257065 -16.174019 4.3625178 19.123501
-24.364622 -9.5091476 4.3816638 19.1735
-24.201824 -7.4011645 4.1825161 18.130001
-24.149246 -11.494678 4.7264953 21.126499
-24.121578 -10.25745 4.5243726 19.175501
-23.842138 -7.4745002 -2.8098106 5
-23.611675 -5.9297638 -2.8952174 8
-23.883804 -5.3648586 -2.9160626 8
-23.992899 -4.3874612 -2.9200881 6
-23.73777 -3.8981967 -2.8824408 6
-23.800177 -3.4656363 -2.8832428 6
-23.960371 -3.0495043 -2.8964684 6
-23.850471 -1.4598869 -2.9331825 6
-23.766699 -1.0200163 -2.9214439 6
-23.994974 13.346834 -2.8812461 9
-23.984402 -19.408501 -2.5373898 7
-23.991062 -12.037022 -2.7253902 6
-23.696333 -10.731408 -2.7272496 7
-23.69293 -7.7974281 -2.7981198 5
-23.663956 -5.011591 -2.7652185 6
-23.85018 -4.6176028 -2.7771599 6
-23.980904 -4.2100425 -2.7834146 6
-23.636732 13.133031 -2.0692074 9
-23.770956 -29.873936 -1.5464463 10
-23.873215 -19.454239 -1.2693254 9
-23.772966 -19.624071 -0.52661234 11
-23.82552 -19.351257 -0.59991062 9.5
-23.860672 0.42564365 -0.53089005 11.1105
-23.844526 -19.403069 -0.20049301 10.528125
-23.648842 0.23092121 -0.26626167 11.119
-23.969467 0.42474544 -0.20849602 12.0805
-23.905134 -19.658825 0.25964886 12
-23.917101 -19.258615 0.041801423 11.127
-23.725687 -19.181749 0.11119086 11.13375
-23.764442 -0.45799389 0.23694618 12.12
-23.840761 -19.665579 0.68127936 12
-23.823332 -19.519073 0.53314358 12
-23.857243 0.33470652 0.71523541 13.119
-23.937786 0.47863466 0.66999519 13
-23.993763 -19.601759 1.1423019 13
-23.814041 -19.375021 1.073885 12.831364
-23.690989 -19.192738 1.1067206 13
-23.789438 -19.514084 1.3671172 13.016389
-23.747637 -19.607506 1.8875582 14
-23.828863 -19.423048 1.8507318 14.027134
-23.962847 -19.157961 1.9573636 14
-23.613369 -18.564644 1.6794697 14.1355
-23.867189 0.11758492 1.6941711 15.1265
-23.833364 -19.417658 2.197746 14.519571
-23.816574 -19.023039 2.0963016 14.024
-23.859749 -19.354254 2.5763907 15
-23.783253 0.40335047 2.6331105 16.083
-23.813087 -19.407961 2.9175711 15.5123
-23.846987 -19.078075 2.8890114 15.015699
-23.90136 -19.391872 3.2808681 16.154333
-23.858515 -19.419018 3.7595522 17.051901
-23.802132 -19.01482 3.8070083 16.659502
-23.774231 -5.4476781 3.9716644 19.1695
-23.861269 -3.8115103 3.7638006 19.165501
-23.977217 -18.839649 4.142231 17.1625
-23.611576 -15.93496 4.338388 19.136999
-23.74608 -12.926071 4.3894615 19.105499
-23.697689 -7.1826005 4.1600623 17.087
-23.333641 -5.1342754 -2.8591802 6
-23.502407 -4.7294269 -2.8701267 6
-23.254614 -3.7539892 -2.9379141 8
-23.403036 -3.152936 -2.8963366 6
-23.455544 -2.1715734 -2.8641648 5
-23.252821 -1.6946408 -2.8648715 5
-23.368858 -18.96862 -2.6190364 8
-23.293892 -18.386038 -2.620209 8
-23.334415 -8.9963369 -2.7995014 7
-23.470146 -8.4727888 -2.7880793 5
-23.556686 -8.1251173 -2.7891114 5
-23.466436 -5.3993778 -2.7527087 6
-23.5595 13.114152 -2.7205679 8
-23.525187 13.162759 -2.0671608 9
-23.517464 13.1762 -1.3888612 10
-23.315819 -19.397156 -0.71938372 9
-23.543362 13.211692 -0.71774775 11
-23.391193 -19.460632 -0.17919123 10
-23.50716 -19.147337 -0.1136887 11.0195
-23.277733 -19.424948 0.33111665 11.0485
-23.42734 -19.178547 0.36058825 11.1525
-23.391188 -0.42724887 0.19875273 12.1155
-23.404879 -0.38383761 0.2296451 12.127
-23.438158 0.57846004 0.045920528 11.1675
-23.441114 -19.359343 0.49220362 12.027
-23.48794 -18.689095 0.49616811 12.112
-23.43713 -19.385479 1.0828917 12.848
-23.492765 -19.032383 0.97772413 12.591249
-23.428608 0.58244401 1.1194048 13.1675
-23.376204 -19.463936 1.3309861 13.016167
-23.545668 -0.34464332 1.299795 14.152
-23.306189 -19.430254 1.8850151 14
-23.299437 0.59363997 1.7689495 14.5955
-23.284691 -19.322241 2.1195016 14.272187
-23.391045 -19.196915 2.0048985 14.0495
-23.510702 0.59531254 2.2548857 15.1675
-23.348869 -19.328243 2.5600026 15.041857
-23.438454 -19.084141 2.6493263 15.163
-23.336836 -0.35113522 2.5823746 16.0835
-23.395411 -19.299265 2.9286237 15.629286
-23.419132 -19.034136 2.8932006 15.014801
-23.366953 0.58777028 3.1369393 17.162001
-23.305962 -19.48875 3.2148108 16
-23.466211 -15.402372 3.4998453 17.13875
-23.573423 -19.402256 3.7262745 17.136499
-23.433475 -18.99692 3.722209 16.200167
-23.551481 -15.843775 4.3507419 19.1415
-23.508505 -15.415413 4.2964826 19.141001
-23.496813 -15.095454 4.2329555 19.136
-23.595524 -13.893156 4.3137541 19.1105
-22.972548 -4.8222179 -2.8749411 6
-22.920383 -4.5367632 -2.8373475 5.3333335
-22.873867 -4.0971274 -2.8188868 5
-22.937555 -3.7586539 -2.8274388 5
-23.077938 -3.4889143 -2.8549311 5.5
-22.989832 -3.0847924 -2.8363147 5
-23.004929 -2.5736444 -2.8418152 5
-22.844469 -1.4486414 -2.8245015 5
-22.891321 -1.0778887 -2.8499804 5
-22.949854 -0.36159587 -2.8694129 5
-23.039371 13.175237 -2.993139 8
-23.040083 -13.957734 -2.6830676 8
-23.136627 -6.1812019 -2.7376399 6
-23.164 13.228337 -2.513134 9
-23.123671 13.20456 -2.3300776 9
-23.008663 0.34511122 -1.936941 9
-23.024151 0.47088966 -1.7875359 7
-22.842592 0.48352277 -1.3829789 8
-22.893232 0.44752079 -0.97650582 9
-23.157625 13.323506 -1.0113604 10.809751
-22.844788 0.45610297 -0.50266886 10
-23.039026 -19.076702 -0.049035553 11.0185
-22.93013 0.46922204 -0.064916596 11
-22.913973 -19.329247 0.30190769 11.562749
-22.98214 -19.014711 0.30365282 11.57375
-22.973309 -0.35169217 0.21840324 12.1195
-22.830938 0.38006625 0.046769496 12
-22.951559 0.52323198 0.28427166 12.03975
-23.060213 0.59657228 0.77353096 13
-23.002117 -19.330698 1.0310048 12.5
-22.957176 -19.109905 1.02242 12.715167
-22.935305 0.51366425 0.92919189 13.007751
-23.060017 -19.338053 1.3451786 13.008583
-23.057045 0.57269514 1.2548052 14.08025
-22.905096 -19.445976 1.697433 14
-23.01594 -19.144247 1.8782245 14.087749
-22.92218 0.38647601 1.6359134 14
-23.056553 0.54203212 1.7704124 15
-23.04393 -19.305002 2.1068399 14.00875
-23.037142 0.5797286 2.2980855 16.087002
-23.175562 -19.355373 2.5748384 15
-22.942089 0.45933151 2.5281792 15
-23.150822 -19.239737 2.9243283 15.333333
-22.908625 -19.078621 2.9032745 15.27025
-22.897326 0.61939496 3.0158546 16.7465
-23.120317 -15.418294 3.5278599 17.125999
-22.900816 -19.397631 3.6639161 16.34
-22.965658 -18.875608 3.7497833 16.300125
-22.86915 -0.48464027 3.8823252 17.007
-22.935022 0.24734901 3.823925 19.161751
-23.114328 -18.80879 4.0266185 17.163
-23.120815 -16.589464 4.1667533 19.133499
-23.171677 -15.364991 4.2022824 19.136499
-23.164261 -6.5883083 4.088985 19.171499
-22.733204 -5.2075686 -2.8558471 6
-22.405922 -0.97627735 -2.8548925 6
-22.652405 -15.886551 -2.6545756 5
-22.758001 -15.545647 -2.6615086 5
-22.515123 -14.701027 -2.6361248 6
-22.552654 -14.328246 -2.6446662 6
-22.53639 -13.93646 -2.6470709 6
-22.489834 -13.55074 -2.6461575 6
-22.468311 -13.171585 -2.6492188 6
-22.541132 -10.760822 -2.7245476 8
-22.423723 -6.0794992 -2.7749965 5
-22.518951 -5.7554274 -2.7831898 5
-22.589056 -5.426013 -2.7885833 5
-22.655888 -5.0955162 -2.7943206 5
-22.435551 0.23034184 -2.5038416 6.4000001
-22.476917 -0.072472833 -2.1314077 7.4000001
-22.433815 0.16163839 -2.1553814 7.6111112
-22.467678 -0.095772937 -1.8102471 7.75
-22.444862 0.19592719 -1.8249123 7.7666669
-22.50308 0.56820375 -1.7046722 8.5
-22.574432 0.83130646 -1.8227618 10
-22.459845 -29.769979 -1.4556077 8
-22.436169 -0.10624409 -1.4005677 8.727273
-22.458755 0.18714288 -1.4259992 8.6190472
-22.615242 0.56242108 -1.4256184 9.1999998
-22.629284 13.462158 -1.426705 9
-22.469315 -29.665564 -0.83106542 9
-22.463167 -0.09655308 -1.0746448 9.5
-22.455088 0.15789545 -1.0622641 9.5232
-22.507854 0.59805912 -0.92327422 10.01
-22.509966 0.83296293 -0.892609 11
-22.562737 -19.343843 -0.64180613 10
-22.431858 -0.092878744 -0.62136227 10.470589
-22.457615 0.16871631 -0.62520379 10.482142
-22.590687 0.56115353 -0.59090626 10.799464
-22.415062 -29.761366 -0.15088023 10
-22.541819 -19.261152 -0.16212718 10
-22.652637 -18.952295 -0.10673596 11.021
-22.4746 -0.105855 -0.14572494 11.163154
-22.461884 0.17423582 -0.16699696 11.335961
-22.524153 0.58261198 -0.12827463 11.720714
-22.582384 -19.312681 0.31343111 11.51875
-22.629324 -19.098604 0.14349465 11.349
-22.488232 -0.16434409 0.21601415 12.029465
-22.488327 0.15984437 0.22681835 12
-22.609043 0.58946747 0.19489762 12.302571
-22.575136 -19.357012 0.60562253 12
-22.642965 -18.873974 0.54737025 12.0245
-22.488777 -0.11912753 0.6333757 13.009048
-22.473097 0.19192332 0.61622643 12.833333
-22.526943 0.58339834 0.59836584 13.028559
-22.562258 0.83409786 0.47355139 13
-22.613121 -19.337963 0.96764457 12.469643
-22.525963 -19.036438 0.98275781 12.693899
-22.459206 -0.11847253 1.0259008 13.351707
-22.480791 0.18563646 1.0231937 13.474576
-22.576254 0.58877307 1.06469 13.913813
-22.522402 0.82662195 1.0418302 14.04325
-22.604685 -19.351557 1.3965948 13.016222
-22.470222 -0.12181596 1.4573669 14.10331
-22.496939 0.18059513 1.4006176 14.076923
-22.571823 0.57082283 1.4195852 14.142558
-22.578382 0.83813232 1.4283193 14
-22.573019 -19.329113 1.8637942 14.019571
-22.723927 -19.114876 1.9081154 14.02275
-22.461599 -0.15438238 1.7062575 14.662292
-22.500689 0.16581953 1.6976261 14.604651
-22.563887 0.58151275 1.747883 14.793954
-22.59376 0.83875084 1.7986358 15
-22.66046 -19.28862 2.1733048 14.6
-22.444237 -19.128038 2.198509 14.009
-22.477526 -0.11920132 2.2162085 15.762514
-22.516769 0.19785589 2.2174633 15.548301
-22.570961 0.60682923 2.23509 15.6082
-22.517618 0.92332858 2.2937105 15
-22.576801 -19.268484 2.5422246 15
-22.798203 -18.999094 2.7323487 15.03
-22.613609 -0.53028482 2.5262811 15
-22.451813 -0.15691446 2.5364892 15.357142
-22.463737 0.14858732 2.5759912 15.655957
-22.523664 0.5943535 2.5155745 15.560723
-22.621038 0.85894638 2.4539475 15.521626
-22.632696 -19.264433 2.9660325 16
-22.663841 -19.069084 2.8871727 15.218
-22.428373 -0.53620756 3.1181722 16.032801
-22.475229 -0.16072364 3.0400136 16.273533
-22.508371 0.20596187 2.9859171 16.473486
-22.547737 0.64929867 3.0813575 16.216049
-22.485689 0.88649291 3.0854695 16
-22.574812 -19.330906 3.3960965 16.380667
-22.406813 -0.87832373 3.3403735 16
-22.438822 -0.57565981 3.3675427 16.599714
-22.470802 -0.19802922 3.4170318 17.311131
-22.479523 0.16363432 3.4334385 17.147129
-22.506182 0.59401703 3.3580239 17.080252
-22.487085 0.83788049 3.3024273 16
-22.670139 -19.330904 3.605691 17.044167
-22.777437 -19.063011 3.6293349 16.030001
-22.532833 -18.764374 3.6668577 16.581625
-22.634928 -15.244999 3.9490333 19.132
-22.48896 -1.3983064 3.9903398 17.01
-22.471333 -0.9779588 3.8611858 19.1
-22.452517 -0.16063946 3.7045925 18.503849
-22.55974 0.18800786 3.7260292 18.2757
-22.599476 -13.385687 4.1144309 19.110001
-22.442066 -3.9819582 4.392096 19.004999
-22.40626 -3.5733147 4.3722048 19.004499
-22.42725 -3.116133 4.248878 17.0695
-22.499128 -2.623013 4.1844869 20.095125
-22.502914 -2.1434712 4.081419 17.015249
-22.637501 -1.5438533 4.0744419 19.071499
-22.587507 -1.0429146 4.0258589 17.014
-22.103987 -14.068889 -2.8673754 8
-22.096125 -4.4617734 -2.8498662 5
-22.080578 -4.1173587 -2.8443494 5
-22.192059 -3.7860377 -2.8578768 5
-22.293705 -3.4719152 -2.8693225 5.5
-22.085922 -3.040143 -2.8369987 6
-22.261169 -2.422991 -2.8662078 5
-22.016645 -0.72084427 -2.8159122 7
-22.333221 -0.36529452 -2.8990996 5
-22.334404 0.28397956 -2.8557992 6.1999998
-22.20981 -17.620996 -2.5273454 8
-22.370165 -12.419003 -2.6501393 6
-22.370829 -12.045001 -2.6583006 6
-22.352304 -11.674566 -2.664567 6
-22.300037 -11.304267 -2.6670604 6
-22.130615 -10.25596 -2.7007825 8
-22.317823 -0.084227078 -2.440635 8
-22.350449 0.22555202 -2.499254 6.6363635
-22.390005 0.43567753 -2.4385629 6
-22.355131 -0.11246274 -2.1906011 6.75
-22.305006 0.21529287 -2.2169452 7.6666665
-22.133526 0.62830013 -2.3902245 9
-22.358126 -0.071817562 -1.8557388 8.4285717
-22.328396 0.20840949 -1.7974236 9.25
-22.240984 0.55446041 -1.7013211 9
-22.206478 0.83858061 -1.6943923 10
-22.357187 -0.087052383 -1.3778858 8.875
-22.28471 0.19688715 -1.3931855 9.7692308
-22.181564 0.57660937 -1.3447782 9
-22.168335 0.82794851 -1.5985233 10
-22.195919 13.667353 -1.4161752 9
-22.348682 -29.809477 -0.81029576 9
-22.347162 -0.10616843 -1.0085747 9
-22.299652 0.21654287 -1.0192783 10.5
-22.269985 0.55278569 -0.94036144 10.825046
-22.189817 0.86351186 -0.95080453 11.0485
-22.362652 -0.13518374 -0.6010682 10.505125
-22.353849 0.30589688 -0.6107074 10.333333
-22.24333 0.5938378 -0.62264282 10.707438
-22.152849 0.80360359 -0.56444228 11.033
-22.350069 -0.098271325 -0.17858809 11.064556
-22.308496 0.19801217 -0.15333568 11.850473
-22.223196 0.55350208 -0.16176401 11.734436
-22.194086 0.83764064 -0.12305614 12
-22.277264 -19.259186 0.33312085 11.095833
-22.04269 -19.14723 0.3615188 11.1535
-22.300348 -0.18052673 0.22888461 11.982214
-22.355793 0.15988854 0.20404577 12
-22.204721 0.66267872 0.11665649 12.134611
-22.21138 0.80199289 0.35727069 13.0795
-22.13693 -19.256628 0.51250029 12.01375
-22.058786 -18.409124 0.54586321 12.127
-22.266392 -18.318756 0.45994321 12.026
-22.364368 -0.1138234 0.59331077 12.637184
-22.331127 0.24012345 0.56701666 12.72636
-22.225975 0.60223466 0.60933638 13.000136
-22.212448 0.88806611 0.52164304 13.051666
-22.191233 -19.244745 1.0192311 12.568501
-22.247051 -19.05485 1.0279022 12.814625
-22.366396 -0.17933051 1.0077947 13.381657
-22.335558 0.1189337 0.96895766 13.666667
-22.224199 0.64516908 1.0649525 13.896194
-22.232756 0.8510738 0.94708264 13.387501
-22.19894 -19.258627 1.3509685 13.035376
-22.10216 -19.103483 1.3265893 13.04
-22.354517 -0.12081501 1.4076767 14.41075
-22.317759 0.18284737 1.4287133 14.058824
-22.259451 0.64885229 1.4247943 14.150434
-22.226746 0.88143253 1.3381828 14.010786
-22.069099 -19.232775 1.86611 14
-22.243614 -19.052834 1.8799257 14.0375
-22.354019 -0.21241195 1.6860216 14.5
-22.389025 0.14564921 1.7748451 15
-22.225044 0.63455856 1.6991003 15
-22.132215 -19.110079 2.1686125 14.574125
-22.379393 -0.1602952 2.1173286 15.333333
-22.301292 0.21689832 2.2515669 15
-22.253223 0.6426605 2.2092869 15.576319
-22.224609 0.9309243 2.1881618 15.025833
-22.304939 -19.282064 2.574718 15
-22.124523 -19.063848 2.6835468 15.29925
-22.325541 -0.46576172 2.6292875 15.5
-22.253189 -0.24459116 2.6662166 16.1215
-22.316551 0.22287448 2.6376657 16.111
-22.162415 0.54710972 2.6236086 15.85
-22.237164 0.88501078 2.4529901 15.723
-22.242851 -19.074261 2.9415791 15.615072
-22.275946 -1.2962921 3.094269 16.003668
-22.316465 -1.0074161 3.1113694 16.027683
-22.381855 -0.56129575 3.1099918 16.005001
-22.331211 -0.17775086 3.0677652 16.27
-22.349678 0.25255677 3.002614 16.300858
-22.214613 0.68935746 3.0862725 16.166666
-22.224634 0.95564848 3.0745959 16.03775
-22.088512 -19.218815 3.5704343 16.0205
-22.157854 -18.725092 3.5831661 16.02
-22.030157 -3.3643878 3.5829275 19
-22.070826 -2.9363322 3.4114976 17.340982
-22.098549 -2.6036317 3.411293 17.589096
-22.166697 -2.1764092 3.4088926 17.617935
-22.202133 -1.8086861 3.3771541 17.310061
-22.285152 -1.4029822 3.3988423 17.577269
-22.323126 -1.0236185 3.4046693 17.36676
-22.367584 -0.56665087 3.4263346 17.621927
-22.376545 -0.30834895 3.3475416 16.275124
-22.203346 0.204459 3.3472769 16.672894
-22.291864 0.60021335 3.3576076 17.186857
-22.172886 0.89732754 3.269022 16.025
-22.229071 -19.222982 3.68455 16.511501
-22.249746 -19.004911 3.6238663 16.008999
-22.001833 -18.639784 3.6905477 17.148001
-22.050196 -3.6099546 3.9529922 17.084
-22.025232 -3.359148 3.7837052 19.666666
-22.061922 -3.0144563 3.8250089 18.362333
-22.082636 -2.5904927 3.8373682 18.6119
-22.168266 -2.1679153 3.7297568 18.78125
-22.178284 -1.8368167 3.7559295 18.426554
-22.283342 -1.4031472 3.691102 18.540464
-22.305752 -0.9531495 3.7511897 17.814968
-22.351118 -0.62287229 3.6668901 18.299049
-22.278145 0.32752401 3.6983552 18.684099
-22.171627 0.46214658 3.7322259 17.002001
-22.054905 -5.2532325 4.392086 17.037001
-22.190243 -4.9154248 4.376266 18.10425
-22.122513 -4.6535964 4.3691764 18.068001
-22.169933 -4.1983995 4.3374777 19.62825
-22.122038 -3.6381772 4.3032966 19.173
-22.29627 -3.3060782 4.1902862 18.087875
-22.174868 -2.9577079 4.1216578 21.122999
-22.198738 -2.5999231 4.1603293 19.645716
-22.227083 -2.2168984 4.1176538 20.028318
-22.157774 -1.8687177 4.0615506 19.796249
-22.14015 -1.4029365 4.0518427 19.684143
-22.153778 -0.98301578 4.0543089 19.781084
-22.028009 -7.3973255 4.7264104 19.012501
-22.095083 -6.4517961 4.587832 20.0895
-22.193047 -6.3401661 4.5767593 19.007
-22.042391 -5.8668804 4.5248208 19.0065
-22.041742 -5.3008571 4.4765434 20.08675
-22.18749 -4.9811282 4.4275599 19.7945
-22.195259 -4.5009208 4.3999825 21.168501
-22.018774 -4.3165612 4.4133029 17.0445
-21.945011 -14.62651 -2.8630693 8
-21.998531 -14.367146 -2.8680928 8
-21.66189 -5.764823 -2.8086662 5
-21.755529 -5.4358625 -2.8155677 5
-21.760796 -5.0991254 -2.825685 5.5
-21.878708 -4.7349367 -2.8334076 5.5
-21.995111 -4.2918363 -2.8485281 6
-21.606071 -3.5788145 -2.8571026 5
-21.701599 -2.5612941 -2.869642 5
-21.806156 -0.51202989 -2.9046373 5
-21.694126 0.12786789 -3.0207343 7
-21.730093 -18.749617 -2.5447197 7
-21.917677 -14.319057 -2.680603 6
-21.835886 -13.899448 -2.6572509 6.5
-21.774553 -13.538762 -2.6760097 6
-21.671364 -12.765563 -2.6796088 6
-21.64365 -12.393927 -2.685353 6
-21.76623 -8.5897713 -2.7124212 6
-21.794188 0.2344635 -2.5374842 7.6666665
-21.666126 0.54299289 -2.4431283 7.5
-21.977362 0.27434704 -2.2857361 9
-21.831932 0.55605197 -2.187984 8
-21.889017 0.62597191 -1.7104974 8
-21.865723 0.85796124 -1.7325372 10
-21.801321 0.72730476 -1.4141582 10
-21.920023 0.37271607 -1.0963619 10
-21.824337 0.52423394 -1.1322243 9.75
-21.932571 0.67694908 -0.69566602 10.727072
-21.982479 0.82407349 -0.73573166 11.04
-21.803587 -19.015743 -0.046039533 11.0045
-21.790485 0.57403123 -0.18133622 11.709266
-21.968992 0.87339085 -0.19867741 12
-21.80975 -19.27647 0.34079909 11
-21.808893 -19.051687 0.2160587 11.448334
-21.656208 -18.206287 0.33423841 12.0385
-21.779224 -0.086936288 0.28008312 12.162
-21.823801 0.67728329 0.094494663 12
-21.848272 0.95024496 0.38912484 13.086
-21.746996 -19.252954 0.60397249 12
-21.911709 -18.286217 0.5046432 12.0225
-21.851114 0.64607662 0.63197333 13.039222
-21.791496 0.82495683 0.60849506 13
-21.734938 -19.263069 0.84514356 12
-21.860062 -19.153934 0.96375269 12.346334
-21.780466 0.71500725 1.0503883 13.945801
-21.810766 0.86707646 1.0152377 13.7445
-21.796684 -19.268013 1.3150945 13
-21.740648 -19.162603 1.269474 13.009167
-21.646103 -0.11892626 1.4487026 15.11
-21.773308 0.66769081 1.4740635 14.275001
-21.846186 0.8928628 1.4260316 14.049417
-21.939207 -19.305075 1.9557563 14
-21.903515 -19.034658 1.9282099 14.01375
-21.848408 0.68400735 1.6742438 14.780625
-21.822201 0.92268085 1.7861553 15.028666
-21.80633 -19.127186 2.0054088 14
-21.809402 0.71101326 2.1339636 15.844351
-21.775743 0.88235217 2.2555938 15.4443
-21.831478 -19.081421 2.4735668 15.0015
-21.656902 -18.744892 2.4435635 15.15875
-21.721619 -0.22924788 2.6372058 16.5119
-21.814728 0.62266886 2.6952062 16.664501
-21.720169 0.83056438 2.6659963 17.1355
-21.777485 -18.934303 2.9476233 15.8255
-21.620041 -18.782553 3.0282676 16.1775
-21.796391 0.68854928 2.9988925 16.528376
-21.89175 0.87371439 3.0994022 16.0291
-21.913109 -19.207874 3.5986319 16.0205
-21.820259 -19.035419 3.4723847 16.012001
-21.867531 -18.745359 3.5708473 16.018999
-21.856737 -4.2018452 3.5839057 17.005249
-21.90719 -3.8201599 3.5075538 17.014917
-21.963064 -3.3580897 3.4795353 16.615149
-21.984041 -3.1181755 3.4239445 17.442499
-21.773195 0.32366094 3.3850307 19.1425
-21.818014 0.63151211 3.3404374 17.514778
-21.66939 0.84347087 3.3107946 19.1355
-21.947222 -18.971428 3.7224045 17.1485
-21.965717 -18.731049 3.6322956 16.009001
-21.689123 -6.0777097 3.9111931 17.038332
-21.642176 -5.7059565 3.9857531 19.043251
-21.707582 -5.4313512 3.9188235 18.726084
-21.731998 -5.0257797 3.9220021 18.598
-21.810432 -4.5703382 3.8603275 18.887922
-21.860762 -4.1622348 3.8696876 18.864183
-21.931009 -3.7622898 3.8413036 18.585056
-21.956392 -3.4738045 3.8615928 18.634699
-21.964466 -3.0086474 3.9927754 21.14175
-21.720287 -1.8071861 3.8766367 17.0105
-21.721006 -0.89401865 3.842767 18.055
-21.899431 -0.71082914 3.9893458 21.1325
-21.816097 -0.24072571 3.9280739 18.378334
-21.695229 0.4593018 3.7373426 18.049
-21.613649 -6.1733966 4.1540141 20.043251
-21.632595 -5.7971597 4.1636629 19.975113
-21.69182 -5.3576097 4.2077017 18.704575
-21.733887 -5.0174532 4.1516452 18.83353
-21.78546 -4.5987325 4.1457176 18.828167
-21.821594 -4.2391295 4.1429195 19.707424
-21.861542 -3.7909594 4.1135283 19.225672
-21.936081 -3.3511095 4.1003623 19.876844
-21.8416 -3.0185173 4.1333609 20.13475
-21.795324 -2.5973744 4.1544833 18.11875
-21.88513 -2.2727385 4.2131124 19.060165
-21.794868 -1.8537582 4.0899491 17.751667
-21.822657 -1.3497812 4.0741854 21.138699
-21.771133 -0.98415077 4.0457659 20.126333
-21.908552 -7.7417078 4.7642231 21.661499
-21.82349 -7.3327379 4.65487 20.366749
-21.837357 -6.9708762 4.6861019 21.474167
-21.732225 -6.4744186 4.6050644 20.66765
-21.989733 -6.1653128 4.5917954 20.61075
-21.786879 -5.8787642 4.5712566 20.692099
-21.784483 -5.4167037 4.5124121 20.2197
-21.708454 -4.9865594 4.4541197 20.29525
-21.84486 -4.7014065 4.4091902 20.085999
-21.659145 -9.6883936 4.8908405 20.094
-21.640123 -8.654357 4.8822241 22.16925
-21.773325 -8.1551294 4.8145432 21.632
-21.297375 -4.8984189 -2.8255012 5
-21.32131 -4.5616584 -2.8244569 5
-21.444849 -4.2384973 -2.8386829 5
-21.545683 -3.9099574 -2.850409 5
-21.456266 -0.71275264 -2.8670969 5
-21.320694 0.29390368 -2.8787582 5
-21.284504 -18.635468 -2.5296938 7
-21.207956 -18.149155 -2.4900539 7
-21.229481 -14.580379 -2.621474 5
-21.308681 -14.083929 -2.6293132 5
-21.317368 -13.743965 -2.6290989 5
-21.36923 -13.421566 -2.63609 5
-21.579935 -12.018828 -2.6871264 6
-21.497389 -11.642286 -2.6871738 6
-21.472681 -11.265252 -2.6957068 6
-21.406641 -10.88975 -2.6994405 6
-21.233515 -10.442913 -2.6740959 7
-21.501421 -9.0609045 -2.722523 6
-21.245745 -8.272974 -2.7818785 6
-21.524311 -2.6009576 -2.7874725 7
-21.294968 -1.6441946 -2.7503254 7
-21.561472 -0.16391715 -2.4015999 6
-21.578335 0.30187911 -2.7944005 8
-21.427235 0.43382546 -2.4396937 6
-21.284735 0.45905831 -2.1863363 6.5
-21.438423 -19.23111 -0.65469909 9
-21.488447 -19.081556 -0.55947173 10.359
-21.436337 0.65312815 -0.64540225 11.063333
-21.546583 0.80586493 -0.6899997 11.0805
-21.421259 -19.244167 -0.1680226 10.25
-21.468885 -19.043251 -0.17033517 10.7058
-21.404512 0.63427585 -0.170266 11.6775
-21.411848 -19.259249 0.35085282 11
-21.385754 -0.09848924 0.24176334 12.14225
-21.275789 0.60348248 0.10365123 12.079166
-21.382219 -19.132898 0.64004666 12.01475
-21.406593 0.56900197 0.6513499 13.0832
-21.530289 0.8307727 0.63756335 13.053666
-21.237213 -19.207733 0.88172978 12
-21.241547 -18.778154 1.0353546 13.0305
-21.5042 0.71888286 1.0262896 14.052625
-21.369043 0.8825115 1.0504969 13.877785
-21.480852 -19.23316 1.3296604 13
-21.441 -19.118467 1.3485676 13.0058
-21.353878 -0.099834077 1.4267193 14.770665
-21.376396 0.6912176 1.5247277 15.04875
-21.240364 0.80828786 1.3921164 14
-21.373287 -19.261993 1.9202801 14
-21.457615 -19.050201 1.9385639 14.008188
-21.481106 0.71039033 1.8706266 15.666667
-21.393888 0.95668119 1.8145627 15.039249
-21.495249 -19.008921 2.1504638 14.390416
-21.489687 0.72941387 2.201122 16.070168
-21.572323 0.90458584 2.2961762 15.416667
-21.329922 -19.233398 2.4949994 15
-21.515579 -19.025438 2.6627123 15.03009
-21.564957 -18.755819 2.7391121 15.0415
-21.476 -0.25179383 2.6692512 17.13925
-21.426094 0.66074014 2.7249188 17.131399
-21.521605 0.99602473 2.4625492 16
-21.441797 -19.040504 2.9306333 15.788125
-21.413231 0.72832149 3.1461568 17
-21.47753 0.85773331 3.0820019 16.0805
-21.492411 0.32684678 3.4271307 19.112125
-21.421864 0.59328651 3.4271798 17.4095
-21.460007 0.86533916 3.2896407 17.264599
-21.345011 -18.732517 3.6786819 17
-21.412016 -7.3138309 3.957706 17.0525
-21.443987 -6.9038639 3.9932745 21
-21.484098 -6.6953416 3.9306355 17.841
-21.524403 -6.2637839 3.9515474 18.553312
-21.57815 -5.797317 3.9279091 18.410416
-21.387131 -3.0427012 3.9997048 17.084
-21.366503 -1.8831536 3.9305389 21.145834
-21.325958 -1.0385338 3.9871275 19.091
-21.439138 -0.70153254 3.9473031 20.468834
-21.337133 -0.12080293 3.9365001 21.153502
-21.353779 0.21463208 3.8995235 21.132666
-21.445148 0.48817432 3.7049623 18.576376
-21.219179 -8.9499979 4.2155972 18.41
-21.257725 -8.5155334 4.2658539 17.627073
-21.287855 -8.2489424 4.1915011 18.84359
-21.353848 -7.8117189 4.2124858 18.686853
-21.418245 -7.3803377 4.2154856 19.351973
-21.460541 -6.9875398 4.2121487 18.934404
-21.488752 -6.6169033 4.2339568 18.945251
-21.554478 -6.195519 4.2127962 18.758461
-21.564285 -5.8084693 4.2363195 17.046909
-21.366854 -5.4815583 4.3077893 18.019749
-21.377222 -4.1345673 4.2760429 18.792929
-21.401814 -3.7581758 4.3081174 19.27285
-21.466169 -3.4731445 4.2930427 18.669703
-21.370701 -3.0603111 4.200726 17.919928
-21.510983 -2.595443 4.1991363 21.165751
-21.368828 -2.0762801 4.1345181 20.167999
-21.306599 -1.7456465 4.0736203 18.7017
-21.525913 -1.3910213 4.1237655 20.056751
-21.367384 -1.0106974 4.0630631 20.693899
-21.364141 -0.64383334 4.0406685 19.066332
-21.324299 -11.348145 4.6432462 19.33025
-21.227947 -11.168689 4.7184973 19.011499
-21.334265 -10.772817 4.7480888 19.733667
-21.229988 -9.4128876 4.4269614 19.089001
-21.27482 -9.0371799 4.5854712 20.132
-21.27607 -8.5610371 4.5599432 19.875519
-21.33176 -8.1367102 4.4748096 19.64415
-21.383587 -7.7997699 4.5668931 20.35425
-21.431988 -7.4525304 4.5746317 20.142399
-21.412598 -7.0320549 4.5617476 20.486721
-21.383953 -6.5798798 4.5752087 21.376167
-21.402756 -6.1921344 4.5635028 21.351084
-21.42485 -5.8780766 4.5018234 20.789312
-21.431086 -5.4506421 4.5084257 21.04525
-21.363567 -5.0277123 4.4951787 21.2869
-21.391758 -4.6218424 4.4482903 20.783688
-21.409945 -4.379354 4.4174824 21.169001
-21.362553 -11.112959 4.8123593 22.122
-21.433617 -10.669922 4.835742 21.61025
-21.39801 -10.088602 4.8456578 20.56575
-21.466473 -9.7893181 4.8699665 21.489334
-21.415316 -8.4602928 4.8449969 20.742002
-21.391869 -8.2570601 4.8597727 21.411751
-21.222721 -7.8331261 4.8305345 22
-21.16918 -6.2349515 -2.8017929 6
-21.035095 -5.8745489 -2.8057649 5
-21.030413 -5.4400811 -2.8368635 4
-20.979662 -5.1042886 -2.8687084 3
-20.897404 -4.6041107 -2.8377724 4.3333335
-20.981405 -4.2058563 -2.854517 4
-21.000313 -3.8074365 -2.8574262 4
-21.166449 -2.8897486 -2.829206 5
-20.87483 -2.7565475 -2.8307791 5
-20.92544 -0.42420715 -2.8681595 5
-20.843987 -0.15480612 -2.8542414 7
-20.926783 0.33827507 -2.862442 7
-21.034445 -18.485371 -2.5147164 8
-21.175135 -18.142115 -2.5251217 7
-21.12566 -17.961731 -2.5317719 8
-21.128857 -15.073091 -2.6121008 5
-21.138935 -13.667728 -2.631398 7
-20.837515 -6.988214 -2.7880483 6
-20.919542 -6.5651484 -2.7935922 5.5
-20.931776 -6.1981421 -2.7985334 5
-21.182299 -2.2098398 -2.7956998 5
-21.133511 -0.20646964 -2.6053362 7.5999999
-20.909939 0.53110898 -2.6655743 7
-20.937881 0.80961591 -2.4114897 9
-20.963984 0.57656848 -2.0562274 9
-20.906307 0.48684132 -1.7819952 7
-20.952589 0.39715561 -1.583777 7
-20.943018 0.52015859 -1.2826976 9.5
-20.934803 0.51296383 -0.99450088 9.4736538
-20.964375 -19.025423 -0.62128866 10
-20.910915 0.49798787 -0.58064747 11.033666
-20.873991 -19.206194 -0.21753645 11.104
-21.12302 -18.84749 -0.043017544 11.0195
-20.825756 -18.758608 -0.011286897 11.0185
-20.939634 0.51852185 -0.16681641 11.339833
-20.98258 -19.232082 0.36287442 11.552
-20.869064 0.52134573 0.089079544 12.060666
-20.97921 -18.196915 0.50025892 12.0745
-20.840292 0.3294608 0.44834462 13.0975
-20.887754 0.66014206 0.60392714 13.064584
-21.024323 0.89508033 0.56848478 13.029562
-20.982439 0.75508916 0.87110209 13.6
-20.956354 0.92716324 1.0059538 13.882315
-21.129566 -19.238937 1.3977166 13
-21.032171 -18.973001 1.3266891 13.019751
-20.892628 0.65029246 1.4797753 14.666667
-20.957153 0.94832212 1.3781478 14.280499
-20.861738 -18.135979 1.6980966 14.146
-20.83836 0.65090555 1.9498038 15.919909
-20.889563 0.8540957 1.783031 15.25
-21.126732 -19.191982 2.1582589 15.104
-20.86392 0.68046963 2.2103236 15.63735
-20.826244 0.92262834 2.156569 15.543
-21.172539 -19.036678 2.4047616 15.005
-20.979507 -0.14758946 2.6524272 16.614124
-20.855513 0.70072693 2.6070974 16.82568
-20.857603 0.89419538 2.4759195 16.608429
-21.087673 -18.999065 2.9670973 16.070499
-21.125942 -18.701141 3.0120981 16.164499
-21.015553 0.786457 3.1205564 17.0445
-20.943678 1.0317384 3.1456442 16.399813
-21.028786 0.63222939 3.3587532 17.457499
-21.013975 0.9441666 3.3561585 17.77207
-20.944172 -1.8042456 3.9025438 19.096748
-20.862221 -0.95462918 3.997962 19.0875
-21.026258 -0.65154201 3.8760283 20.618374
-21.139879 0.13786046 3.9087725 21.157751
-20.985809 0.52244395 3.8403299 20.804834
-20.895304 -14.907085 4.3690858 17.031
-20.829653 -11.697972 4.2018056 18.777927
-20.85681 -11.381733 4.2107306 18.627363
-20.917004 -10.987211 4.1915989 19.02553
-20.970316 -10.591764 4.2130275 18.02895
-21.026587 -10.195649 4.1916132 18.177679
-21.085493 -9.8240232 4.2175016 18.258577
-21.12615 -9.3784065 4.2631207 17.278168
-21.154051 -8.9733 4.2457061 17.562063
-21.165712 -8.6987619 4.1030188 17.047249
-21.011415 -5.7162237 4.3988562 17.0415
-20.903938 -5.4044671 4.3029652 20.114166
-20.80056 -4.7583246 4.3134999 17.038
-20.961678 -4.1662674 4.2656956 19.410749
-21.064318 -3.6966197 4.297183 19.230165
-21.056437 -3.3834157 4.2828526 19.645391
-20.88871 -2.9220755 4.2185497 20.073334
-21.044191 -2.6355729 4.2092047 20.288198
-20.940756 -2.1912723 4.1691999 19.466848
-20.908308 -1.8699855 4.0802507 21.136
-21.038876 -1.3034983 4.0566034 20.166874
-20.987097 -0.93227249 4.0459743 20.463751
-20.943914 -0.65664405 4.0208659 21.112499
-21.055149 -0.39275935 4.0577393 19.0005
-20.870661 -14.812603 4.4544196 21.136999
-20.828497 -14.570257 4.488059 20.118126
-20.935022 -14.392653 4.4801745 21.143499
-20.885265 -13.412419 4.5413795 19.076
-20.984306 -12.64118 4.657527 20.062374
-20.95603 -12.188213 4.6615109 20.047667
-21.059462 -11.829076 4.659554 20.091793
-20.910587 -11.34067 4.6002774 20.09725
-20.99048 -10.993716 4.641469 19.76165
-20.993088 -10.604828 4.5832744 19.957439
-21.035009 -10.222659 4.5305667 19.055387
-21.092108 -9.8502188 4.559731 19.618822
-21.120605 -9.4000235 4.5597095 20.420221
-21.082697 -8.9635067 4.5563536 19.498726
-21.096121 -8.706831 4.408824 17.0415
-20.992422 -7.8363824 4.5807338 19.101835
-21.027918 -7.3864164 4.7497826 20.6619
-20.982555 -7.0261106 4.7307901 21.8634
-20.971329 -6.6437144 4.5267243 21.087357
-20.989332 -6.2763987 4.6434126 21.6355
-21.060713 -5.7815342 4.5916371 22.086624
-20.904055 -5.4013195 4.5382891 21.636002
-21.08165 -5.0153904 4.488934 22.163624
-21.04678 -4.5944352 4.4424324 22.122957
-21.092138 -4.2413135 4.4290586 20.07325
-21.007187 -10.940602 4.809464 21.549751
-21.014027 -10.522459 4.8448009 21.301876
-20.966211 -10.154291 4.8678627 20.755501
-21.096275 -9.7568674 4.9318628 21.272251
-20.892361 -9.304431 4.9133034 21.6355
-21.030191 -9.041667 4.8976059 20.599251
-20.98657 -8.5594044 4.9250612 20.565624
-20.839756 -7.9091058 4.8620977 22.1085
-21.199587 -7.5729618 4.8021007 22
-20.644171 -5.0908618 -2.8068583 5
-20.683653 -4.6168761 -2.8797588 6
-20.550076 -2.9386513 -2.9148805 7
-20.445072 -2.4393189 -2.8988757 7
-20.623013 -1.4279879 -2.8061779 5
-20.554569 -0.89469743 -2.8924403 6
-20.581581 -0.57479608 -2.8715639 6.25
-20.56271 -0.12830713 -2.9075119 6
-20.664936 0.17972352 -2.8766453 7
-20.786541 0.48563164 -2.8378181 5.5
-20.417604 -17.680687 -2.5601099 8
-20.740648 -15.555927 -2.7513008 8
-20.600897 -14.703961 -2.6131022 5
-20.665533 -14.184464 -2.6318362 5.3333335
-20.675013 -13.734736 -2.6433587 5.5
-20.571341 -13.368478 -2.6430116 6.3333335
-20.617933 -13.017646 -2.648062 5.5
-20.602575 -12.667595 -2.6536264 5.5
-20.550327 -12.318105 -2.6543658 5.5
-20.633142 -11.752252 -2.6431763 5
-20.529087 -11.081095 -2.6557264 7
-20.425888 -7.7107205 -2.7673447 6
-20.627579 -7.3495359 -2.7768216 6
-20.715038 -6.8329511 -2.7847941 5
-20.410025 -6.0684538 -2.7890632 5
-20.475246 -5.7398205 -2.7923028 5
-20.523109 -5.3558745 -2.7837646 5
-20.691168 -4.9414239 -2.7705851 6
-20.615026 -2.408582 -2.7947903 5
-20.672604 0.37422034 -2.689595 8
-20.630257 0.50794137 -2.5318837 5.090909
-20.647829 0.51297671 -2.2144368 6.2777777
-20.417732 0.82562172 -2.3736236 9
-20.57707 -29.336128 -1.8156538 7
-20.783047 0.38284981 -1.9821262 6
-20.604792 0.55411696 -1.7877029 7.347826
-20.527506 -29.610741 -1.356926 8
-20.7852 0.39843619 -1.2262535 8
-20.626266 0.51771593 -1.4185709 8.1785717
-20.640955 0.58398062 -0.974747 9.7036343
-20.442568 0.84113711 -0.84670907 11
-20.401026 -29.509941 -0.64302379 9
-20.632067 0.52185738 -0.59174782 10.194241
-20.611868 0.59642547 -0.16131738 11.456577
-20.473684 -18.889 0.27039483 12.071
-20.682579 -18.738304 0.063086338 11.006
-20.786591 -18.04694 0.29920566 12.0495
-20.680473 -0.016108524 0.21344864 12.12
-20.676329 0.25852782 0.25291228 12.116166
-20.566477 0.49597576 0.15114595 12.094153
-20.629936 -18.187622 0.5290913 12.1275
-20.71442 0.37495807 0.42535794 13.0505
-20.553782 0.6621201 0.5967471 13.099625
-20.59696 0.90760088 0.62369013 13.008889
-20.647678 0.77993244 1.0159228 14
-20.530621 0.898736 0.96159559 13.926764
-20.712938 -0.052126378 1.4580466 15.1015
-20.678146 0.67398757 1.5234762 14.88221
-20.595243 0.91040194 1.4192476 14.581528
-20.470428 -18.899059 1.7561107 14.06
-20.752766 0.69503301 1.7326982 14.908999
-20.674419 0.9388904 1.7984349 15.393043
-20.71674 0.74511695 2.2610478 15.441
-20.681902 0.95161325 2.1915748 15.240945
-20.678879 0.72067022 2.645828 16.682787
-20.732742 0.8984639 2.5459881 16.166313
-20.690388 -19.108589 2.9229572 16.101
-20.511141 1.0002396 3.0774033 17.619875
-20.566467 1.2052597 3.0047581 16
-20.522095 -18.85409 3.4935317 16.064833
-20.533924 0.5928753 3.3975689 16.5165
-20.554836 1.004063 3.2659619 17.560814
-20.406776 -14.862998 3.7298868 19.144501
-20.464296 -14.145798 3.9084365 18.082458
-20.510944 -13.83803 3.8534815 18.6609
-20.549753 -13.467381 3.9125314 17.667606
-20.617006 -13.060507 3.9380107 17.57725
-20.670101 -12.598161 3.9244061 17.57675
-20.746727 -12.136094 3.918102 17.762335
-20.55472 -1.7494248 3.9037697 18.829876
-20.551579 -0.59527093 3.8766243 19.611311
-20.622335 -0.34706649 3.9192271 17.076
-20.648207 0.19640395 3.9051495 19.5156
-20.488625 0.66357464 3.8089883 21.147251
-20.477121 -17.267384 4.2833281 18.074249
-20.530184 -16.852728 4.3290343 17.737667
-20.464178 -16.200916 4.3428612 18.078625
-20.560921 -15.909267 4.350738 17.029751
-20.509092 -15.410995 4.3834162 17.068001
-20.574289 -14.866762 4.2048359 17.022667
-20.472679 -14.534561 4.2522521 18.677801
-20.48772 -14.196281 4.2440434 18.679827
-20.521837 -13.800925 4.2289748 19.761911
-20.595196 -13.395538 4.2148972 19.160553
-20.64106 -13.015581 4.2116203 19.324535
-20.680445 -12.62501 4.1903243 18.561668
-20.736017 -12.182425 4.1836591 18.94619
-20.768614 -11.845308 4.1399269 18.577307
-20.765121 -11.43826 4.144527 19.073
-20.467012 -6.4600296 4.2845774 17.039499
-20.547838 -5.3733263 4.3354282 21.127333
-20.531071 -4.1704755 4.3238935 22.1245
-20.641388 -3.7943552 4.3607645 22.151543
-20.572702 -3.3797269 4.3099785 22.141787
-20.636642 -2.9948289 4.1626997 21.1304
-20.535194 -2.257164 4.193202 21.81175
-20.608324 -1.8662786 4.13377 19.083166
-20.563259 -1.381256 4.0578208 21.16325
-20.69858 -0.84273362 4.0110321 21.163
-20.479259 -0.60692668 4.0131974 21.106001
-20.537624 -16.041899 4.4281855 21.129499
-20.46806 -15.824086 4.4347506 20.447332
-20.795368 -15.504148 4.4348478 19.097
-20.611961 -15.049088 4.4439359 21.139875
-20.569534 -14.701334 4.4573193 19.783417
-20.486671 -14.359914 4.4456143 17.0425
-20.664551 -13.947854 4.4209304 17.052999
-20.581038 -13.292127 4.4148488 17.723333
-20.569736 -12.959172 4.5727806 20.2486
-20.654066 -12.573227 4.6104102 20.540499
-20.626453 -12.233001 4.6137352 20.308773
